0.137168 -0.024405 0.605026 145 166 183
0.113021 0.007047 0.499905 142 165 183
0.113021 0.007047 0.499905 142 165 183
0.113230 0.025320 0.502041 144 170 187
0.113230 0.025320 0.502041 144 170 187
0.112718 0.004071 0.499454 13 36 54
0.112417 -0.003446 0.499760 2 23 40
0.112417 -0.003446 0.499760 2 23 40
0.112156 0.018194 0.499706 146 169 187
0.112218 0.009359 0.500572 4 23 40
0.112218 0.009359 0.500572 4 23 40
0.112218 0.009359 0.500572 4 23 40
0.111683 0.011311 0.499468 33 52 69
0.111729 0.008070 0.499612 144 167 185
0.111686 -0.000565 0.499193 18 39 58
0.111804 0.003471 0.500524 141 167 184
0.134730 -0.023033 0.603524 52 75 89
0.111486 0.022958 0.500634 16 38 59
0.111486 0.022958 0.500634 16 38 59
0.111028 -0.004143 0.498174 149 170 187
0.110527 -0.014686 0.496026 58 76 88
0.110527 -0.014686 0.496026 58 76 88
0.110957 0.000025 0.500075 145 168 186
0.110478 0.009452 0.499199 154 175 194
0.110478 0.009452 0.499199 154 175 194
0.109626 -0.017832 0.495118 135 158 172
0.133332 -0.024381 0.602283 138 159 176
0.110531 0.010483 0.500178 149 172 190
0.110469 0.026401 0.501339 4 27 45
0.110469 0.026401 0.501339 4 27 45
0.110111 -0.004002 0.499758 14 35 54
0.109935 0.027427 0.500509 141 167 184
0.109703 -0.003303 0.498745 123 146 164
0.109820 0.021262 0.500298 149 172 190
0.109199 -0.001950 0.497439 140 163 181
0.108369 -0.016087 0.494940 147 166 180
0.070334 -0.012276 0.321653 33 55 68
0.109291 0.007599 0.500776 17 40 58
0.109176 0.026623 0.501034 12 31 48
0.108970 0.017599 0.500181 36 59 77
0.108627 -0.002897 0.499398 6 23 43
0.108860 0.029141 0.501855 34 55 74
0.108727 0.006823 0.500573 148 171 189
0.131424 -0.022239 0.604589 149 171 185
0.108055 0.022556 0.499578 17 36 53
0.108390 0.017652 0.501248 148 171 189
0.108362 0.012954 0.501611 148 171 189
0.107909 0.021913 0.500006 120 137 155
0.121403 -0.034440 0.562148 112 135 153
0.107795 0.006519 0.499661 40 63 81
0.107626 -0.001376 0.499166 144 165 184
0.107626 -0.001376 0.499166 144 165 184
0.107391 0.019520 0.498948 148 169 186
0.107394 0.019528 0.498968 148 169 186
0.107721 0.020855 0.500586 4 21 39
0.107787 0.021598 0.500958 44 59 78
0.107545 -0.002450 0.499322 21 40 57
0.078378 -0.011333 0.363861 76 95 109
0.107722 0.013752 0.500801 152 175 193
0.107158 -0.004419 0.498116 151 174 192
0.107598 0.001464 0.500367 139 165 182
0.106988 -0.003064 0.499534 134 152 172
0.106376 0.011818 0.497301 145 168 186
0.106976 0.014957 0.500471 15 36 55
0.106976 0.014957 0.500471 15 36 55
0.106712 0.004317 0.499470 154 176 197
0.106855 0.022356 0.500872 12 28 44
0.106855 0.022356 0.500872 12 28 44
0.106652 0.019765 0.500378 18 36 56
0.106457 0.005017 0.499589 32 55 73
0.106457 0.005017 0.499589 32 55 73
0.105917 -0.015269 0.496831 142 162 173
0.106418 -0.004132 0.499473 13 31 51
0.106295 -0.000947 0.499691 12 27 46
0.106295 -0.000947 0.499691 12 27 46
0.106295 0.021013 0.500419 143 161 181
0.106326 0.025340 0.501082 11 28 46
0.106326 0.025340 0.501082 11 28 46
0.106217 0.023415 0.501262 143 164 183
0.114798 0.034110 0.542336 150 173 191
0.105901 -0.002890 0.499094 19 36 54
0.105932 0.014184 0.499917 151 172 191
0.105932 0.014184 0.499917 151 172 191
0.105946 0.010742 0.499900 30 53 71
0.105868 0.001047 0.499491 8 23 44
0.105997 0.026023 0.501344 8 25 43
0.105997 0.026023 0.501344 8 25 43
0.105588 -0.002078 0.498762 147 164 182
0.105698 0.004845 0.500134 6 27 46
0.105698 0.004845 0.500134 6 27 46
0.105521 -0.005143 0.499129 152 173 192
0.106237 0.006313 0.503251 143 166 184
0.105540 0.021973 0.501180 17 34 50
0.105540 0.021973 0.501180 17 34 50
0.105216 -0.003592 0.498891 150 171 190
0.105169 0.007120 0.499682 151 174 192
0.105029 0.003689 0.499410 139 165 182
0.105029 0.003689 0.499410 139 165 182
0.105115 0.003684 0.500192 137 163 180
0.105043 0.018662 0.500699 10 31 50
0.105043 0.018662 0.500699 10 31 50
0.104631 0.012552 0.499219 142 164 185
0.104066 -0.020280 0.496154 149 170 189
0.104501 -0.000888 0.499708 151 172 191
0.104968 -0.007433 0.502088 119 135 148
0.104190 0.005550 0.499133 142 165 183
0.104257 -0.006119 0.499394 9 28 45
0.104004 0.016926 0.499886 145 168 186
0.104004 0.016926 0.499886 145 168 186
0.103850 0.019770 0.500018 10 31 50
0.103738 0.004320 0.499755 0 18 35
0.103738 0.004320 0.499755 0 18 35
0.103536 0.018532 0.499713 144 165 184
0.086728 -0.016002 0.419414 137 160 176
0.103080 -0.002271 0.499028 12 33 52
0.102749 0.010772 0.499526 3 24 43
0.102638 0.001197 0.499630 143 164 183
0.102554 0.009583 0.499750 152 175 193
0.102182 -0.005345 0.498171 140 161 178
0.102995 0.012560 0.502603 138 161 179
0.102290 0.016090 0.499461 16 39 55
0.102290 0.016090 0.499461 16 39 55
0.102175 -0.000159 0.498930 3 18 37
0.158845 -0.029595 0.775322 46 68 82
0.102889 0.025978 0.503389 143 166 184
0.123843 -0.017894 0.605163 50 68 78
0.102238 -0.002623 0.500047 143 164 183
0.102238 -0.002623 0.500047 143 164 183
0.101943 0.018421 0.500614 6 27 46
0.101943 0.018421 0.500614 6 27 46
0.101826 0.010245 0.499814 26 47 66
0.101693 0.002160 0.499489 12 29 45
0.101666 0.009086 0.499957 13 36 54
0.101666 0.009086 0.499957 13 36 54
0.101760 0.026758 0.501311 23 49 66
0.101503 0.003251 0.499440 28 45 63
0.101359 -0.004326 0.498760 147 168 185
0.101334 -0.005393 0.498839 17 36 53
0.101449 -0.001037 0.499533 145 163 185
0.101565 0.005668 0.500497 140 163 181
0.096347 -0.018146 0.475704 68 90 104
0.085001 -0.013633 0.419858 65 87 101
0.100767 -0.004862 0.497977 148 169 186
0.100697 0.000882 0.498695 151 172 189
0.100697 0.000882 0.498695 151 172 189
0.100696 0.009116 0.499038 144 165 184
0.100780 0.008184 0.499672 18 41 57
0.100780 0.008184 0.499672 18 41 57
0.100605 -0.001606 0.499269 21 42 59
0.100274 0.011415 0.499968 143 166 184
0.099356 0.018566 0.496272 146 169 187
0.073023 -0.013889 0.364205 39 61 74
0.099824 -0.002219 0.498566 141 162 181
0.100168 0.025443 0.501303 32 58 75
0.099835 -0.000909 0.498913 141 164 182
0.099815 0.014912 0.499702 141 164 182
0.099968 -0.003860 0.500050 146 167 184
0.099968 -0.003860 0.500050 146 167 184
0.099674 -0.003035 0.499215 17 38 59
0.099421 -0.004479 0.499275 21 42 63
0.099490 -0.004466 0.499962 21 42 63
0.099490 -0.004466 0.499962 21 42 63
0.099559 0.025223 0.501384 147 173 190
0.099266 -0.001736 0.499065 30 51 72
0.072611 -0.012061 0.365004 77 95 109
0.099238 0.003993 0.499705 141 167 184
0.099078 -0.007933 0.499034 15 27 39
0.083154 -0.015053 0.419206 137 160 174
0.098812 0.011817 0.500501 140 163 181
0.098852 -0.000851 0.500345 146 169 187
0.098441 -0.002528 0.498509 150 168 188
0.098747 0.023274 0.501117 9 32 50
0.098359 0.004289 0.499337 4 25 42
0.098362 0.012750 0.500065 15 33 53
0.098362 0.012750 0.500065 15 33 53
0.098197 0.021620 0.499771 148 171 189
0.097952 0.005187 0.498851 142 165 183
0.098097 0.015760 0.500246 5 24 39
0.097944 -0.003202 0.499156 22 41 58
0.097944 -0.003202 0.499156 22 41 58
0.097812 -0.001652 0.498686 21 39 61
0.097812 -0.001652 0.498686 21 39 61
0.097855 0.000028 0.499931 19 40 61
0.151130 -0.029939 0.776754 147 169 183
0.097223 0.016038 0.500609 18 37 54
0.097223 0.016038 0.500609 18 37 54
0.097143 0.010966 0.500114 13 32 47
0.096296 0.013846 0.498232 143 166 182
0.096179 -0.006018 0.497408 143 160 176
0.096401 -0.003650 0.499484 143 169 186
0.096328 0.004990 0.500004 143 166 184
0.095672 -0.020056 0.496507 156 178 192
0.116363 -0.023435 0.605752 139 162 178
0.095802 0.011149 0.500268 152 173 190
0.148375 -0.031863 0.774674 148 167 182
0.148375 -0.031863 0.774674 148 167 182
0.095278 0.009071 0.499780 24 47 65
0.115427 -0.029144 0.605100 149 166 176
0.095180 0.003106 0.499717 148 170 191
0.095105 0.004998 0.499675 26 48 69
0.095130 0.007760 0.500169 23 44 63
0.094885 -0.000061 0.499033 147 169 192
0.094829 0.001985 0.499425 147 169 190
0.094856 0.012762 0.500108 3 21 41
0.094984 0.004098 0.500576 151 172 191
0.094675 -0.005461 0.498761 8 25 45
0.094675 -0.005461 0.498761 8 25 45
0.094674 0.008472 0.499192 146 169 187
0.094820 0.024668 0.501014 40 63 79
0.114095 -0.029064 0.603285 148 165 175
0.094933 0.017594 0.503066 147 170 188
0.094422 0.019881 0.500472 29 50 67
0.094289 -0.003857 0.499091 16 37 56
0.094320 0.004440 0.500032 143 164 181
0.094084 0.001875 0.499399 37 54 74
0.093868 -0.000051 0.498790 146 167 188
-0.053768 -0.027632 0.393781 147 66 142
0.093868 -0.000051 0.498790 146 167 188
0.094094 0.024085 0.501040 149 175 192
0.093902 0.002992 0.499396 13 28 49
0.093539 -0.002732 0.497652 140 163 181
0.094412 0.030149 0.503571 149 172 190
-0.053303 -0.010089 0.393837 107 3 40
0.093311 0.000583 0.499972 11 28 46
0.093311 0.001773 0.500227 146 167 184
0.093354 0.012772 0.500813 145 168 186
0.093235 0.020404 0.500988 137 160 178
0.093225 0.023693 0.501145 25 46 65
-0.052573 -0.027149 0.393119 90 18 84
0.144209 -0.030777 0.774787 151 173 187
0.092690 0.011439 0.499742 9 30 49
0.092458 0.015111 0.499542 144 165 184
-0.052445 0.003857 0.393837 103 5 52
-0.052316 -0.013970 0.392578 111 12 79
-0.052438 -0.004942 0.393749 161 72 130
0.092702 0.028814 0.501562 26 47 64
-0.052236 0.009751 0.393358 114 15 69
0.092595 0.026738 0.501551 10 31 48
-0.052066 -0.039394 0.393464 88 13 82
-0.052066 -0.039394 0.393464 88 13 82
-0.052120 -0.014778 0.393524 162 60 125
-0.052120 -0.014778 0.393524 162 60 125
0.092244 -0.000386 0.499229 148 169 188
-0.051930 0.012866 0.394173 162 80 146
-0.051835 -0.024724 0.393657 152 69 139
0.092357 0.001856 0.500358 142 165 183
-0.051684 0.013909 0.393468 87 2 59
0.092153 0.008293 0.499887 24 45 66
0.092153 0.008293 0.499887 24 45 66
0.092153 0.008293 0.499887 24 45 66
0.091935 0.005607 0.499469 143 169 186
0.092027 0.020765 0.500751 7 24 42
0.091255 -0.015297 0.496123 158 177 192
-0.051428 -0.038075 0.393327 84 8 70
-0.051428 -0.038075 0.393327 84 8 70
0.091749 0.012565 0.499540 5 24 41
0.110940 -0.023859 0.603686 146 169 183
0.092034 0.027692 0.502249 147 169 190
-0.050988 0.018461 0.394051 114 8 31
0.091548 0.010035 0.500376 140 167 184
0.091318 0.011042 0.499431 149 172 190
-0.050850 -0.041179 0.393545 94 21 90
0.091504 0.023057 0.501221 7 24 42
0.091345 0.008572 0.500029 142 167 187
-0.050649 0.020603 0.393119 117 12 29
0.091345 0.008572 0.500029 142 167 187
0.091488 0.028353 0.501684 22 45 63
-0.050929 -0.006388 0.394662 157 66 127
0.091488 0.028353 0.501684 22 45 63
-0.050777 -0.027263 0.393768 83 13 76
-0.050707 -0.033266 0.393411 165 88 156
-0.050703 -0.002166 0.393355 146 52 105
0.091416 0.019400 0.501271 18 35 53
0.090685 -0.015603 0.496566 141 160 174
0.091371 0.021468 0.501483 154 173 190
0.091371 0.021468 0.501483 154 173 190
-0.050559 0.009912 0.393573 138 53 110
0.141437 -0.025200 0.775383 152 174 187
-0.050432 0.004335 0.393228 152 61 118
-0.050393 -0.010859 0.392873 117 12 42
0.076549 -0.016009 0.419998 39 59 70
-0.050241 -0.003456 0.392907 111 21 59
-0.050265 -0.027993 0.393908 114 45 110
0.090575 -0.003205 0.499501 145 168 186
0.090575 -0.003205 0.499501 145 168 186
0.090318 0.018299 0.499551 141 162 181
0.109567 -0.026382 0.605586 104 123 137
-0.050185 -0.034914 0.394049 154 81 152
-0.050123 -0.026736 0.393732 141 66 133
0.090364 0.010962 0.500742 24 45 64
0.090276 0.008297 0.500199 13 35 56
0.090276 0.008297 0.500199 13 35 56
0.090202 0.021975 0.500572 144 167 185
0.090202 0.021975 0.500572 144 167 185
-0.049855 -0.028564 0.393708 77 7 77
0.108918 -0.023069 0.604764 66 88 102
0.108918 -0.023069 0.604764 66 88 102
0.089884 0.020899 0.500736 11 28 46
-0.049678 0.022363 0.394194 162 71 114
-0.049620 0.007037 0.393532 91 12 59
0.089679 0.011197 0.500848 149 168 185
0.089585 0.012493 0.500468 4 23 38
-0.049173 -0.013713 0.390152 151 54 133
-0.049565 -0.001491 0.393518 86 0 41
-0.049383 0.019663 0.393359 167 83 133
-0.049440 -0.032873 0.393408 82 4 52
-0.049383 0.012696 0.393420 81 3 51
0.089381 0.024009 0.501379 155 173 193
-0.049366 -0.033705 0.393692 94 17 73
-0.049425 -0.027759 0.394121 60 0 53
0.089152 -0.006361 0.500526 142 163 180
0.088256 -0.018885 0.495831 59 78 93
-0.048871 0.003534 0.393287 78 2 32
-0.048887 -0.036726 0.393695 144 74 147
-0.048887 -0.036726 0.393695 144 74 147
0.088648 -0.007734 0.499175 21 35 48
0.088759 0.020594 0.500913 151 168 186
-0.048667 0.010071 0.393821 155 74 133
0.088573 0.021722 0.500834 21 40 57
0.088573 0.021722 0.500834 21 40 57
0.088291 -0.000001 0.499422 23 48 68
-0.048489 -0.001319 0.393753 161 74 143
-0.048468 -0.021653 0.393474 161 69 144
0.087965 0.017138 0.499362 141 164 182
0.088196 0.018767 0.500753 8 24 40
0.088196 0.018767 0.500753 8 24 40
0.087827 -0.004830 0.498571 49 72 90
0.087827 -0.004830 0.498571 49 72 90
-0.048138 0.023481 0.393814 85 1 24
-0.048138 0.023481 0.393814 85 1 24
0.087839 0.024158 0.500874 7 28 47
0.087839 0.024158 0.500874 7 28 47
-0.047984 0.025250 0.393537 99 26 69
0.087571 0.022692 0.500415 143 164 183
0.087563 0.000622 0.499850 138 164 181
-0.048114 -0.008526 0.394374 103 7 70
0.087495 0.019271 0.500329 125 142 160
0.087581 0.004305 0.500350 143 169 186
0.087307 0.022599 0.500067 149 170 189
0.087366 0.010561 0.500077 143 165 186
0.135621 -0.025150 0.776485 148 165 183
0.087280 0.018295 0.500760 4 19 38
0.105602 -0.026395 0.605105 144 163 177
-0.048159 -0.006170 0.396161 160 79 148
0.105737 -0.018408 0.606560 131 145 158
-0.047692 -0.028540 0.392771 94 19 88
0.086914 -0.005099 0.499323 141 166 186
-0.047696 -0.007612 0.393322 157 71 142
0.086797 -0.001634 0.499359 41 68 89
0.086848 0.007987 0.500180 13 38 58
0.086848 0.007987 0.500180 13 38 58
0.086909 0.020862 0.501238 11 28 46
0.086929 0.022595 0.501506 147 168 187
0.086929 0.022595 0.501506 147 168 187
0.086780 0.019082 0.500593 27 43 59
0.086782 0.006437 0.501150 141 166 186
0.086782 0.006437 0.501150 141 166 186
-0.047382 0.011779 0.393230 91 9 58
0.104693 -0.025879 0.604342 57 79 93
0.134833 -0.031798 0.778535 154 176 190
0.133381 -0.037145 0.771175 150 167 175
0.086283 0.008852 0.499699 142 168 185
0.086063 0.007319 0.499020 145 167 188
0.086080 0.007345 0.499242 144 166 187
0.086245 0.018642 0.501280 149 166 184
0.086245 0.018642 0.501280 149 166 184
0.103953 -0.018765 0.606323 137 159 172
0.085468 -0.002880 0.498970 10 31 50
0.085468 -0.002880 0.498970 10 31 50
0.085520 -0.001757 0.499772 144 169 191
0.085450 -0.000745 0.499521 14 35 56
0.085450 -0.000745 0.499521 14 35 56
0.085436 -0.005266 0.499571 4 21 37
0.085311 0.007271 0.500136 50 71 90
0.132383 -0.037360 0.775444 147 164 174
-0.046543 -0.029341 0.391956 150 68 142
0.085257 0.012422 0.500373 14 36 57
-0.046623 -0.005873 0.393427 112 34 109
0.084875 0.009180 0.498872 147 170 188
0.084875 0.009180 0.498872 147 170 188
0.132069 -0.029685 0.776189 140 161 178
0.084661 0.009953 0.499948 6 28 49
0.084715 0.028043 0.501648 28 51 69
0.084715 0.028043 0.501648 28 51 69
0.084491 -0.004090 0.499591 134 160 175
0.084507 0.021695 0.500835 8 29 48
0.084289 0.013539 0.500450 50 75 97
-0.046104 -0.003574 0.392753 147 66 142
0.084036 0.012761 0.499505 149 171 192
0.083559 -0.018973 0.496107 61 80 97
0.084045 0.011294 0.500311 145 171 188
-0.045756 0.003182 0.393100 87 11 83
-0.045796 -0.006493 0.393311 150 72 148
-0.045734 0.005774 0.393982 155 79 153
0.083621 -0.000663 0.499337 25 48 66
0.083806 0.017842 0.501397 8 27 44
-0.045578 -0.027523 0.393621 113 37 102
-0.045361 -0.020743 0.392140 146 64 140
-0.045361 -0.020743 0.392140 146 64 140
-0.045422 -0.001326 0.393067 117 39 114
-0.045333 0.019452 0.393268 172 74 131
0.083324 -0.008288 0.498786 18 27 36
-0.045290 -0.025296 0.393468 82 0 59
-0.045290 -0.025296 0.393468 82 0 59
-0.045221 -0.037481 0.393192 151 64 145
-0.045096 0.008956 0.393066 118 40 115
0.083230 0.020718 0.501103 146 167 186
0.083013 -0.000206 0.499553 147 169 190
0.082864 -0.006405 0.499016 8 25 43
-0.045074 -0.003212 0.394276 163 85 160
0.129191 -0.023791 0.778328 159 175 188
0.082735 -0.003962 0.499481 12 35 53
0.082901 0.019996 0.501466 19 37 57
0.082063 -0.018266 0.495655 140 159 176
0.082967 0.023498 0.502267 147 168 187
0.083023 0.018867 0.502643 146 167 186
0.082688 0.008113 0.500355 32 53 72
-0.044549 -0.030696 0.393277 83 0 70
0.082398 0.000659 0.499336 8 29 48
0.082522 0.014906 0.500601 145 168 186
0.082408 -0.003206 0.499531 142 165 183
-0.044300 -0.029312 0.392205 134 52 126
-0.044336 0.010374 0.393012 161 80 156
-0.044336 0.010374 0.393012 161 80 156
0.082420 -0.000102 0.499855 146 172 189
0.082396 0.010855 0.500310 21 42 63
-0.044377 0.012195 0.393809 119 31 105
0.081993 0.020571 0.499043 151 170 187
-0.044225 -0.026615 0.393167 145 62 134
-0.044183 -0.032993 0.392935 76 0 53
-0.044146 -0.037196 0.393203 90 2 78
0.082026 0.021428 0.500618 25 42 60
-0.044108 -0.027481 0.393376 145 63 137
-0.044108 -0.027481 0.393376 145 63 137
0.081966 0.019646 0.500656 18 35 51
0.081966 0.019646 0.500656 18 35 51
0.081993 0.024712 0.501227 22 37 56
-0.043846 -0.021314 0.393715 110 26 101
-0.043846 -0.021314 0.393715 110 26 101
0.081860 0.007782 0.500281 146 172 189
-0.043686 0.016945 0.393205 156 66 138
0.095160 0.036877 0.582940 153 175 196
-0.043552 0.001213 0.391662 159 86 159
-0.043693 0.013203 0.394371 160 70 140
-0.043555 0.013173 0.393789 166 76 146
0.081568 0.005518 0.499994 23 44 63
-0.043585 -0.028281 0.393872 71 0 63
0.081568 0.005518 0.499994 23 44 63
0.081344 -0.006656 0.499525 140 159 176
-0.043301 0.021472 0.393613 175 86 130
0.081467 -0.005407 0.500394 144 167 183
-0.043313 -0.027149 0.393150 82 2 73
0.081324 0.021957 0.500730 159 172 188
-0.043293 -0.006758 0.393753 111 30 106
-0.043293 -0.006758 0.393753 111 30 106
0.081173 0.008312 0.500224 26 47 66
0.081173 0.008312 0.500224 26 47 66
-0.043139 -0.003808 0.393436 93 12 78
-0.043031 -0.033924 0.393076 158 69 151
-0.043031 -0.033924 0.393076 158 69 151
-0.043025 -0.020874 0.394056 152 72 135
-0.042897 0.004574 0.393576 165 90 159
0.080750 0.026569 0.500743 145 168 186
-0.042870 -0.030796 0.394390 100 20 93
0.080513 0.024788 0.501470 146 163 181
-0.042643 -0.019336 0.393366 95 18 72
-0.042562 0.014879 0.393352 143 48 112
-0.042615 -0.022490 0.393211 81 2 49
-0.042406 0.017253 0.392728 120 25 93
-0.042729 -0.029485 0.395540 152 71 147
-0.042297 -0.026148 0.392006 152 68 143
-0.042278 0.019196 0.393138 85 0 11
-0.042205 0.005963 0.392429 75 5 42
0.079674 -0.006659 0.499375 9 24 43
-0.042127 0.021331 0.393735 103 4 22
0.079433 0.014718 0.500579 27 49 70
-0.041901 -0.017776 0.392582 99 23 72
-0.041842 0.003586 0.392470 123 47 112
-0.041804 -0.027687 0.392982 72 0 62
0.079460 0.024321 0.502094 25 40 59
0.079261 0.027120 0.501627 124 145 164
0.079261 0.027120 0.501627 124 145 164
-0.041693 0.007069 0.393326 159 82 150
0.078437 -0.016018 0.495994 144 163 177
0.078772 0.012469 0.500707 10 28 48
-0.041427 0.008894 0.392738 169 97 170
-0.041315 0.018167 0.393137 114 17 62
-0.041315 0.018167 0.393137 114 17 62
0.078669 0.027796 0.501272 147 165 185
-0.041131 -0.022058 0.392877 150 66 141
0.078529 -0.000688 0.499745 9 31 52
0.078620 0.026948 0.501413 50 68 88
0.078620 0.026948 0.501413 50 68 88
-0.040833 -0.019143 0.392965 148 68 127
-0.040675 -0.023242 0.391759 154 70 147
-0.040716 -0.020575 0.393149 96 16 75
-0.040692 0.000854 0.393113 157 86 156
-0.040625 0.003549 0.393002 159 88 154
-0.040625 0.003549 0.393002 159 88 154
-0.040709 -0.027659 0.393659 147 67 140
0.077886 0.012570 0.500454 130 148 168
0.077623 -0.006721 0.499106 43 62 79
-0.040435 -0.000559 0.392973 163 93 165
0.076836 -0.023161 0.495516 63 80 90
0.076926 -0.016571 0.496371 59 75 90
-0.040080 0.014252 0.392411 106 12 72
-0.040201 -0.004587 0.393214 164 94 166
0.076864 -0.021278 0.495975 58 75 91
0.076864 -0.021278 0.495975 58 75 91
0.076851 -0.014692 0.496204 94 108 117
-0.039938 -0.008049 0.393445 163 91 164
-0.039863 -0.022110 0.393034 116 30 103
-0.039671 -0.015154 0.392566 64 0 48
-0.039866 -0.032610 0.395693 124 37 115
-0.039604 0.000595 0.393272 101 26 91
-0.039664 -0.023396 0.394064 158 72 147
-0.039305 -0.014098 0.392397 158 76 152
-0.039400 -0.016973 0.393406 159 76 154
-0.039294 -0.014070 0.392357 159 76 154
-0.039158 0.004145 0.393476 114 34 97
-0.039100 -0.027822 0.393208 57 0 46
-0.038995 0.016648 0.393278 119 29 101
-0.038868 0.005440 0.391870 125 49 113
-0.038864 0.001261 0.392204 131 49 113
-0.038788 0.020790 0.392761 112 5 25
-0.038928 0.006787 0.393539 152 77 144
-0.038895 0.013225 0.393563 169 83 148
-0.038931 -0.020843 0.393464 158 77 156
-0.038848 -0.030427 0.392954 86 6 77
-0.038848 -0.030427 0.392954 86 6 77
0.075428 -0.018971 0.496258 142 163 180
-0.038796 -0.006999 0.392973 91 19 82
-0.038728 -0.002038 0.392818 82 0 62
-0.038632 -0.011170 0.392843 118 33 98
-0.038597 -0.029269 0.392665 105 28 98
-0.038476 0.009433 0.392986 156 75 141
-0.038494 0.008596 0.393398 74 0 58
-0.038443 0.004890 0.393091 173 94 159
-0.038275 -0.000396 0.391604 152 68 145
-0.038307 -0.005715 0.392394 154 78 150
0.077076 0.034044 0.515191 145 170 192
-0.038446 -0.031788 0.395475 149 67 143
-0.038095 -0.029281 0.393115 152 72 145
-0.038163 0.000666 0.393850 96 13 81
-0.038074 -0.010078 0.393411 111 30 89
-0.037871 0.024893 0.393191 178 113 179
-0.037688 -0.027835 0.392348 102 31 89
-0.037694 0.017618 0.393579 174 92 166
-0.037704 0.019988 0.394456 122 3 31
-0.037535 -0.025101 0.392614 103 14 80
-0.037459 -0.028410 0.393051 77 2 69
-0.037391 -0.008015 0.392340 161 85 149
-0.037368 0.011633 0.392716 96 13 65
-0.037426 -0.000465 0.393441 155 73 149
-0.037426 -0.000465 0.393441 155 73 149
-0.037296 0.012813 0.393687 163 74 130
-0.037231 0.005988 0.393387 90 15 54
-0.037141 0.007747 0.393347 74 0 44
-0.036933 0.013842 0.392127 84 0 45
-0.037014 0.018802 0.393626 188 98 168
-0.036941 -0.030651 0.392834 83 1 73
-0.036879 -0.033514 0.393117 80 0 62
-0.036770 -0.025915 0.392755 147 61 132
-0.036622 0.014937 0.392884 159 67 130
-0.036554 -0.014078 0.392666 152 69 147
-0.036430 -0.012206 0.392734 74 0 42
-0.036282 -0.017234 0.391311 159 76 154
-0.036069 -0.033975 0.392828 162 79 157
-0.036080 0.015627 0.393801 124 28 100
-0.035973 -0.020981 0.392030 79 0 46
-0.036127 -0.031445 0.394092 144 62 138
-0.035875 0.007065 0.393071 153 74 140
-0.035650 -0.009915 0.393041 154 73 142
-0.035650 -0.009915 0.393041 154 73 142
-0.035666 -0.006616 0.393867 100 28 94
-0.035535 -0.021751 0.393514 137 50 119
-0.035223 0.003047 0.392586 89 17 55
-0.035195 0.008728 0.392506 69 0 65
-0.035135 0.004876 0.392715 163 88 153
-0.035135 0.004876 0.392715 163 88 153
-0.034935 -0.027637 0.392584 70 0 60
-0.034863 -0.021922 0.392743 99 8 85
-0.034825 0.008293 0.392711 105 32 103
-0.034770 0.014956 0.392758 110 10 82
-0.034706 -0.030504 0.392256 94 14 87
-0.034591 0.011469 0.392879 128 40 114
-0.034536 0.015597 0.392545 119 19 92
-0.034590 -0.002018 0.392991 154 76 151
-0.034528 0.008194 0.393004 92 17 86
-0.034156 0.022263 0.392914 168 59 127
-0.034121 0.020039 0.392542 181 72 140
-0.034146 -0.039524 0.393370 157 84 157
-0.033850 -0.007015 0.392560 92 17 84
-0.033850 -0.007015 0.392560 92 17 84
-0.033591 -0.026998 0.392653 81 10 76
-0.033389 -0.006244 0.392755 106 31 98
-0.033115 -0.000693 0.392535 81 8 64
-0.033115 -0.000693 0.392535 81 8 64
-0.032973 -0.027479 0.392259 65 0 61
0.058808 -0.010917 0.644673 93 103 104
-0.032789 0.011686 0.392491 165 74 151
-0.032458 0.007054 0.393007 151 78 147
-0.032463 -0.006513 0.392874 73 1 64
-0.032363 -0.000732 0.392150 131 57 106
-0.032367 0.004198 0.392844 161 86 153
-0.032330 -0.001928 0.392911 86 12 49
-0.032280 0.007906 0.392718 115 42 111
-0.032127 -0.021208 0.393091 158 71 150
-0.032036 -0.031354 0.392291 162 81 158
-0.031925 0.005484 0.393141 88 15 71
-0.031862 0.023244 0.393836 123 18 35
-0.031852 -0.025956 0.393049 154 73 149
-0.031697 -0.028858 0.392980 150 77 150
-0.031665 0.001209 0.392880 87 13 66
-0.031647 -0.028171 0.393133 145 74 144
0.057399 -0.071503 0.645788 134 116 54
0.056992 0.001870 0.644593 130 129 124
-0.031276 0.021658 0.393168 171 78 149
-0.031239 -0.006677 0.391827 129 54 119
-0.031036 -0.030433 0.392689 92 11 88
-0.030955 -0.027116 0.392287 77 8 73
-0.030832 0.020758 0.392856 100 8 57
-0.030920 0.004410 0.393411 165 90 159
0.056381 0.000480 0.650661 111 113 102
-0.030505 0.014259 0.392969 128 32 104
-0.030512 -0.022592 0.393170 126 40 113
-0.030295 -0.007101 0.392537 77 6 62
0.055796 0.026663 0.650630 27 19 30
-0.030370 -0.004833 0.394430 152 79 152
-0.030200 0.019010 0.393244 87 2 23
-0.030204 -0.000381 0.393657 146 73 144
-0.030007 -0.026001 0.392039 153 76 148
-0.029987 0.020840 0.392939 181 80 136
-0.029878 0.015532 0.392799 97 8 54
0.054660 -0.031151 0.640263 35 38 27
-0.029571 -0.030599 0.392587 146 71 138
-0.029299 -0.026725 0.392257 65 0 60
0.054204 -0.002833 0.643452 39 39 29
0.054204 -0.002833 0.643452 39 39 29
0.053664 -0.055500 0.637688 38 38 28
-0.028992 -0.021775 0.392884 112 26 99
-0.028960 0.016755 0.394010 184 97 165
-0.028926 -0.020350 0.393125 164 75 141
0.053880 0.000836 0.643264 118 115 110
0.053589 -0.034773 0.640741 40 42 31
-0.028703 0.015204 0.392962 174 89 157
-0.028587 -0.001863 0.392583 164 94 164
-0.028457 0.023377 0.392197 126 45 101
-0.028547 -0.026089 0.393960 151 76 145
-0.028421 -0.031684 0.392706 102 31 73
-0.028285 0.013566 0.391907 178 92 163
-0.028373 -0.020230 0.392774 167 80 151
0.053238 -0.015493 0.642400 28 29 23
0.052897 -0.055333 0.639490 61 61 49
-0.028276 -0.028526 0.393104 155 84 154
-0.028029 0.024207 0.392308 171 102 169
-0.028029 0.024207 0.392308 171 102 169
0.052875 -0.016350 0.640401 113 114 108
-0.027820 0.018267 0.392880 170 88 162
-0.027767 -0.000190 0.392169 56 0 49
0.052676 -0.008640 0.642035 36 37 29
-0.027527 0.021467 0.393135 172 77 143
-0.027527 0.021467 0.393135 172 77 143
-0.027475 0.014622 0.392960 178 87 154
-0.027270 -0.037048 0.393125 154 86 159
-0.027212 0.013339 0.392950 100 12 73
-0.027088 -0.006399 0.392410 97 25 99
-0.027088 -0.006399 0.392410 97 25 99
-0.027053 -0.019967 0.392181 157 71 144
-0.026947 -0.034702 0.391822 102 31 91
-0.027006 0.014827 0.393176 118 26 89
0.052045 -0.015198 0.641927 102 101 96
-0.026928 -0.033198 0.393178 152 78 137
-0.026842 0.015754 0.392979 109 17 80
0.052045 -0.015198 0.641927 102 101 96
0.052051 -0.005068 0.644260 122 125 116
0.051418 -0.067807 0.637386 18 18 10
0.051418 -0.067807 0.637386 18 18 10
-0.026605 0.011477 0.392947 131 49 123
-0.026412 -0.029802 0.392368 154 78 152
-0.026412 -0.029802 0.392368 154 78 152
-0.026351 -0.025762 0.392271 153 73 146
-0.026190 0.022936 0.392577 132 16 37
0.051484 0.000191 0.643963 123 124 118
-0.026118 -0.017919 0.393555 161 72 130
0.051484 0.000191 0.643963 123 124 118
-0.025898 0.019547 0.393258 118 7 26
-0.025898 0.019547 0.393258 118 7 26
-0.025918 -0.034261 0.393424 80 4 53
-0.025883 -0.019466 0.393016 109 24 89
-0.025829 -0.007005 0.392663 113 39 114
-0.025791 0.013759 0.392895 179 94 161
-0.025778 -0.026872 0.392430 86 10 84
0.051194 -0.019164 0.640128 109 110 102
-0.025770 -0.027854 0.392474 90 17 90
-0.025805 -0.012843 0.392974 92 16 52
-0.025579 0.010390 0.392155 167 93 168
-0.025510 0.015771 0.392582 100 10 72
-0.025510 0.015771 0.392582 100 10 72
0.050783 -0.061894 0.638053 16 16 8
0.050941 -0.034186 0.639580 111 117 107
0.050941 -0.034186 0.639580 111 117 107
-0.025272 -0.003643 0.392862 163 93 165
0.050923 -0.000738 0.640204 64 65 59
-0.025192 -0.006542 0.393170 87 15 88
0.051492 -0.009753 0.647686 109 111 100
-0.025116 -0.016408 0.393461 103 22 80
-0.024898 0.015465 0.393339 167 80 148
-0.024789 -0.027788 0.392155 156 78 154
-0.024779 -0.001355 0.392289 179 112 181
-0.024753 0.017484 0.394161 176 95 171
-0.024632 -0.032783 0.392825 151 75 147
0.050331 -0.050089 0.637904 41 43 30
-0.024584 -0.014925 0.392810 90 8 72
-0.024507 0.000081 0.392326 146 86 146
-0.024403 0.021225 0.392940 174 84 146
0.040213 0.014664 0.512204 23 14 17
-0.024343 -0.006552 0.392379 125 54 122
-0.024310 0.009044 0.392737 97 26 86
0.050525 -0.000741 0.643269 102 101 96
-0.023932 0.014675 0.393662 104 20 70
-0.023855 -0.027032 0.392768 87 11 83
-0.023854 -0.030011 0.393093 94 16 91
0.049577 -0.060268 0.637886 15 12 5
0.049577 -0.060268 0.637886 15 12 5
-0.023667 -0.028373 0.392089 80 8 81
-0.023588 -0.000536 0.392719 63 5 55
0.028083 0.010544 0.362996 20 11 14
0.049137 -0.061376 0.638704 115 115 105
-0.023193 0.017661 0.394257 172 95 165
0.049658 -0.016049 0.645766 106 108 97
0.048919 -0.069379 0.637174 77 66 46
-0.023158 0.000850 0.393658 83 23 85
-0.023031 0.023129 0.393225 140 14 38
-0.022955 -0.027487 0.392846 164 92 165
-0.022927 0.018987 0.393204 134 9 39
0.048919 -0.069379 0.637174 77 66 46
0.049122 -0.030423 0.639433 107 108 100
0.049170 0.013877 0.643680 26 15 21
0.049352 -0.006879 0.645828 123 126 117
-0.022271 -0.029370 0.393069 89 24 92
-0.020966 -0.023785 0.393925 154 73 150
0.048316 -0.006976 0.644874 58 60 55
0.047388 -0.067051 0.637738 103 100 91
0.047587 -0.000985 0.643736 130 131 126
0.028818 0.010178 0.392679 17 8 13
0.047412 0.016876 0.645857 17 8 13
0.047337 0.013339 0.646483 61 52 57
0.046972 0.018667 0.646341 8 0 1
0.046564 0.017136 0.646422 100 91 96
0.045118 -0.063268 0.638280 102 102 92
0.045574 0.021714 0.646467 26 17 22
0.045460 0.018207 0.645646 77 68 71
0.045466 0.020502 0.646373 125 114 118
0.044897 -0.040929 0.638951 24 26 15
0.044170 -0.007627 0.642354 60 61 53
0.044157 0.018456 0.646501 22 13 16
0.043270 -0.053271 0.637594 74 71 64
0.043755 0.022172 0.646490 61 48 55
0.042210 -0.053552 0.636290 107 109 98
0.042293 -0.056378 0.639559 54 55 47
0.042007 -0.068263 0.636732 118 111 101
0.042061 -0.038638 0.639820 101 103 90
0.042061 -0.038638 0.639820 101 103 90
0.042360 0.014579 0.645815 116 107 112
0.041993 -0.014342 0.643460 117 117 107
0.041703 -0.049024 0.639736 111 108 101
0.041703 -0.049024 0.639736 111 108 101
0.041490 -0.017721 0.640901 112 115 106
-0.021226 0.010638 0.651695 6 0 10
-0.020948 -0.069817 0.644185 24 33 50
0.041496 0.021452 0.648260 93 82 88
0.041172 -0.002764 0.642931 124 123 121
0.040891 -0.049903 0.639518 44 41 32
0.040891 -0.049903 0.639518 44 41 32
0.041010 -0.051069 0.641520 104 104 94
0.040873 -0.033383 0.642184 25 28 21
0.040834 -0.034550 0.641737 114 115 109
0.040591 -0.048454 0.639231 41 38 31
0.040654 -0.029940 0.641529 106 107 99
-0.020422 -0.071244 0.644742 135 146 164
-0.020255 -0.050857 0.643060 2 0 5
0.040523 -0.031253 0.641082 27 26 21
0.040566 -0.004121 0.643584 110 111 103
0.040728 -0.018601 0.646230 102 103 95
-0.019929 -0.029275 0.646118 67 62 68
0.040056 -0.031792 0.640421 24 23 18
-0.019024 -0.069798 0.640809 109 99 97
0.039816 -0.052122 0.639108 59 59 51
0.039690 -0.015185 0.641921 58 60 49
0.039844 -0.014378 0.644853 108 108 100
0.039644 -0.001676 0.642506 25 19 21
-0.018759 -0.067324 0.641354 63 57 61
0.039763 0.002520 0.644960 129 122 129
0.039220 -0.047226 0.640283 11 7 4
0.039190 -0.016970 0.642312 79 76 67
0.038514 -0.059173 0.634255 108 108 98
0.038961 -0.003770 0.642472 110 113 106
0.038961 -0.016174 0.643132 53 53 45
-0.018006 -0.065792 0.641036 53 48 54
-0.017992 -0.065850 0.644693 37 30 37
-0.017905 -0.050980 0.643201 76 73 80
0.038586 -0.038733 0.638842 111 111 103
-0.017995 0.017816 0.647689 13 3 11
-0.017995 0.017816 0.647689 13 3 11
0.038723 -0.015503 0.643308 45 45 37
0.038464 -0.048428 0.639207 107 104 97
-0.017999 0.021359 0.651491 42 36 40
0.038419 -0.040881 0.641021 17 7 6
0.038419 -0.040881 0.641021 17 7 6
0.038561 -0.000308 0.644734 117 113 114
0.038484 -0.016759 0.643224 113 113 105
-0.017367 -0.068263 0.640760 74 64 72
-0.017367 -0.068263 0.640760 74 64 72
0.038236 -0.037668 0.640183 116 113 106
0.037980 -0.067604 0.637443 110 106 95
0.038310 -0.006042 0.644308 56 59 52
0.038257 0.000902 0.644564 26 19 26
0.037858 -0.049288 0.640594 66 61 57
0.037950 -0.014534 0.643145 107 108 100
0.037600 -0.047790 0.639395 6 1 0
0.037325 -0.064565 0.636251 104 104 92
-0.016744 0.019889 0.650241 64 58 62
0.037608 -0.015390 0.643528 23 24 16
0.037557 -0.004845 0.643964 48 49 43
0.028651 0.001014 0.492962 101 91 99
-0.016359 0.017583 0.648990 18 12 16
-0.016359 0.017583 0.648990 18 12 16
0.037410 0.013176 0.646752 57 50 58
-0.016007 -0.068897 0.643128 93 81 83
-0.015995 -0.029059 0.645591 54 49 55
0.037207 -0.016039 0.645501 40 41 33
0.037207 -0.016039 0.645501 40 41 33
-0.015880 0.012528 0.649201 11 4 11
0.036548 -0.044085 0.640164 98 90 88
0.036776 0.002790 0.644976 115 108 115
0.036495 -0.031785 0.640091 99 98 93
0.036342 -0.062584 0.638901 114 114 104
0.036289 -0.050137 0.641047 16 13 8
-0.015025 -0.063107 0.641256 36 34 39
0.036086 -0.016833 0.642149 45 48 39
0.036116 -0.004351 0.643302 110 115 109
0.035616 -0.050898 0.637575 113 113 103
0.035569 -0.063319 0.637928 16 16 4
0.035895 -0.013225 0.645098 74 75 67
-0.020138 0.029059 0.878785 70 64 68
0.035895 -0.013225 0.645098 74 75 67
-0.014649 0.000051 0.648295 83 77 81
0.035249 -0.065834 0.637215 45 42 35
0.035721 0.018196 0.646764 20 11 16
0.035481 -0.030046 0.641893 105 106 100
-0.014095 -0.061673 0.641510 99 97 102
-0.014095 -0.061673 0.641510 99 97 102
0.034841 -0.060170 0.632572 99 101 90
0.035294 -0.038999 0.641939 103 98 94
-0.013492 -0.063885 0.640370 64 62 65
0.034989 -0.036608 0.640793 93 92 87
0.034836 -0.048584 0.638691 105 102 97
0.035036 -0.020496 0.642414 20 21 13
0.035036 -0.020496 0.642414 20 21 13
-0.013306 -0.023043 0.644988 36 34 39
0.035042 -0.005620 0.643850 112 115 106
0.034897 -0.018136 0.641351 111 112 104
0.034911 -0.017230 0.642740 106 106 98
0.034911 -0.017230 0.642740 106 106 98
0.034760 -0.046533 0.640136 8 0 0
-0.012855 -0.066115 0.640919 78 69 72
0.034830 -0.018924 0.642112 22 19 14
0.034701 -0.031999 0.640503 112 113 105
0.034701 -0.031999 0.640503 112 113 105
-0.012650 0.019959 0.647832 51 46 50
-0.012569 -0.000637 0.646055 92 86 88
-0.012544 -0.012772 0.646572 12 8 9
0.034692 -0.031975 0.641000 114 115 107
0.034224 -0.058263 0.637879 26 27 13
-0.012015 -0.005778 0.647552 114 110 107
-0.011784 -0.056186 0.642021 10 5 11
-0.011641 -0.067915 0.640223 72 63 68
-0.011334 -0.062962 0.641698 73 71 76
0.034172 0.006744 0.644570 50 39 45
0.034069 -0.015405 0.642289 37 38 32
0.034141 -0.014019 0.644641 112 113 107
0.034123 0.013113 0.645746 54 48 52
-0.011048 -0.055799 0.641808 102 100 105
-0.011048 -0.055799 0.641808 102 100 105
0.033881 -0.017561 0.642311 34 35 30
0.033694 -0.052996 0.638985 103 103 93
-0.010976 -0.000950 0.648439 108 102 104
0.033755 -0.033790 0.641483 12 13 7
0.033544 -0.057799 0.638893 98 96 84
0.033444 -0.060681 0.639344 12 9 2
0.033652 0.016196 0.646158 23 13 22
0.033447 -0.000415 0.644478 120 114 118
-0.010022 -0.000544 0.647568 12 3 8
0.033332 0.007819 0.644550 77 67 76
-0.009970 0.019396 0.650137 116 110 112
-0.009970 0.019396 0.650137 116 110 112
0.033123 -0.040897 0.640062 81 76 73
0.033201 -0.030386 0.642515 106 105 100
-0.009189 0.013597 0.638772 80 74 78
-0.009151 -0.063443 0.640110 55 50 54
0.033032 -0.047802 0.640157 122 119 112
0.033198 -0.026224 0.643660 115 117 106
-0.009218 -0.022318 0.645479 39 34 38
0.033151 0.000821 0.644420 26 21 25
0.032657 -0.060870 0.637464 61 58 53
0.033059 -0.039009 0.645346 104 101 96
0.032683 -0.042248 0.638232 26 21 18
0.032828 -0.020342 0.642623 109 110 102
-0.008557 -0.075897 0.641420 35 10 0
-0.008648 0.016315 0.651063 19 10 15
-0.008488 0.018827 0.648217 79 73 77
0.036277 0.002550 0.718097 25 15 23
-0.008383 -0.001816 0.647637 119 110 111
-0.008351 -0.023018 0.645921 9 4 8
0.036277 0.002550 0.718097 25 15 23
-0.008165 -0.034199 0.645086 80 75 79
0.032366 -0.046077 0.641281 108 107 102
0.032365 -0.031589 0.641349 8 7 2
-0.008086 0.012539 0.648965 74 67 74
0.032359 -0.033538 0.641606 16 16 8
-0.007937 -0.066396 0.642143 7 2 6
-0.007931 -0.038422 0.641061 73 68 72
0.032359 -0.033538 0.641606 16 16 8
0.036240 0.000632 0.719062 63 58 62
0.032510 0.020623 0.646910 102 92 101
-0.007681 -0.058673 0.638434 2 0 5
0.032510 0.020623 0.646910 102 92 101
0.032428 0.021576 0.645454 28 19 24
0.032194 -0.043421 0.641132 118 114 111
0.032426 0.018005 0.646500 75 68 75
-0.007401 0.013162 0.648399 87 80 88
-0.007328 -0.034639 0.644184 5 0 4
0.026826 0.001065 0.535063 107 97 105
0.032135 -0.032571 0.641266 103 100 95
0.032194 -0.015554 0.645123 29 28 26
-0.006811 -0.027449 0.645726 61 60 58
-0.006699 0.020071 0.649702 114 105 108
-0.006663 0.013026 0.649709 24 17 24
-0.006618 0.014457 0.649285 114 108 112
0.031748 -0.067048 0.639477 102 100 88
0.031787 -0.056833 0.640975 17 14 7
0.031519 -0.058647 0.638477 36 31 27
-0.006577 0.016506 0.649426 18 12 16
-0.006412 -0.025324 0.643727 9 5 6
-0.006254 -0.057074 0.639373 107 102 98
-0.006254 -0.057074 0.639373 107 102 98
0.031693 -0.018989 0.642838 7 6 1
0.031693 -0.018989 0.642838 7 6 1
-0.006142 -0.035374 0.643097 6 2 3
-0.006118 -0.050169 0.642666 10 8 11
0.031700 -0.030504 0.643570 11 7 4
-0.006096 -0.047242 0.643994 103 102 100
-0.006069 -0.038639 0.642602 109 105 104
-0.006114 -0.045149 0.647368 11 6 10
-0.005949 0.013394 0.648248 85 78 85
0.031516 -0.047552 0.641349 118 115 110
-0.005843 -0.036603 0.645078 11 7 8
-0.005729 -0.034480 0.643459 116 112 109
-0.005729 -0.034480 0.643459 116 112 109
-0.005676 -0.032613 0.644024 17 13 14
0.031542 -0.017583 0.643868 110 110 102
0.022222 0.012219 0.454689 16 10 14
0.031425 -0.019730 0.642795 105 105 97
-0.005601 -0.002503 0.647718 120 112 109
-0.005537 -0.004496 0.647434 70 65 61
-0.005425 -0.059759 0.642754 106 105 100
0.031348 -0.031950 0.641217 18 15 10
-0.005388 -0.054037 0.641419 3 0 0
0.031219 -0.057129 0.639472 91 86 82
0.031166 -0.056572 0.639943 31 28 23
-0.005400 -0.025697 0.644834 104 100 97
-0.005277 -0.028735 0.643622 9 5 4
0.031394 -0.002867 0.645392 12 6 10
-0.005119 -0.063181 0.640954 3 1 2
-0.005081 -0.030732 0.645274 107 104 99
-0.004967 -0.038560 0.642624 69 65 62
0.030893 -0.049120 0.636523 98 98 90
-0.004892 -0.065071 0.641154 93 89 86
0.030935 -0.058339 0.637991 69 64 60
0.030928 -0.057645 0.638557 8 3 0
-0.004430 0.014397 0.648139 88 82 86
-0.004351 -0.050696 0.641748 69 65 62
-0.004351 -0.023860 0.646048 106 103 96
-0.004317 -0.025380 0.645019 19 19 11
-0.003996 -0.034981 0.643307 68 65 60
-0.003893 -0.037965 0.643135 45 42 37
-0.003893 -0.037965 0.643135 45 42 37
0.030957 -0.026019 0.642034 117 117 109
-0.003784 -0.014867 0.646589 108 108 100
-0.003706 -0.064655 0.640311 13 13 5
-0.003752 -0.047295 0.646001 104 101 96
-0.003634 -0.067801 0.640780 116 112 103
-0.003580 -0.016686 0.645944 118 118 110
-0.003580 -0.016686 0.645944 118 118 110
-0.003530 -0.004181 0.647117 110 107 102
-0.003357 0.013048 0.649440 22 15 22
-0.003357 0.013048 0.649440 22 15 22
-0.003276 -0.054889 0.640462 98 98 90
-0.003288 -0.043137 0.642558 108 103 99
-0.003152 -0.069167 0.638935 125 112 95
0.027901 0.001902 0.585216 19 9 17
0.030789 0.000583 0.645961 25 15 23
0.030442 -0.053847 0.638916 66 66 58
-0.002896 -0.065944 0.640765 68 68 58
-0.002896 -0.065944 0.640765 68 68 58
-0.002822 -0.001236 0.650368 19 10 15
-0.002671 -0.063160 0.638323 108 108 100
-0.002648 -0.048680 0.644327 121 118 111
-0.002559 -0.030468 0.643913 104 103 99
-0.002500 -0.060583 0.641243 7 7 0
-0.002505 -0.027274 0.644491 113 113 105
0.030623 -0.019237 0.643084 27 24 17
-0.002271 -0.039695 0.644016 84 78 78
0.030557 -0.029741 0.642352 67 64 59
-0.001921 -0.016999 0.645053 121 118 111
-0.001839 0.001330 0.646878 69 59 67
-0.001633 -0.064686 0.641343 101 100 95
-0.001647 -0.018586 0.644684 110 110 102
0.030162 -0.065666 0.638732 17 13 2
-0.001390 -0.058755 0.646250 104 104 96
-0.001390 -0.058755 0.646250 104 104 96
0.030159 -0.044136 0.641675 18 9 10
-0.001079 -0.003591 0.643805 131 127 124
-0.001040 -0.016463 0.649935 20 16 13
-0.001009 0.000803 0.646946 25 19 23
0.030180 -0.029136 0.642683 25 20 16
-0.000920 -0.053052 0.644416 18 15 8
-0.000896 -0.037865 0.640970 118 113 110
-0.000905 -0.028776 0.644332 25 22 17
0.030271 -0.027154 0.645248 63 61 49
-0.000787 -0.039360 0.642436 5 1 0
0.030079 -0.036353 0.641443 22 19 14
-0.000749 -0.031336 0.644615 118 115 110
0.030079 -0.036353 0.641443 22 19 14
0.030035 0.007390 0.645180 89 79 88
-0.000500 -0.062755 0.640798 34 34 26
-0.000441 -0.044406 0.642921 11 5 7
0.029878 -0.022048 0.643284 51 48 41
0.029878 -0.022048 0.643284 51 48 41
-0.000336 -0.069383 0.644258 115 104 84
-0.000318 0.001491 0.647687 116 110 114
-0.000282 -0.014827 0.644033 113 113 105
0.029880 -0.016066 0.643870 115 115 107
-0.000071 -0.015949 0.646614 19 18 14
-0.000050 -0.028766 0.643828 18 15 10
0.000549 0.002151 0.646216 20 11 16
0.000658 -0.031413 0.642287 17 13 10
0.000699 -0.029390 0.644045 110 106 103
0.000698 -0.034853 0.644050 118 117 112
0.000746 -0.046408 0.645665 79 75 72
0.029539 -0.046977 0.641089 121 118 113
0.001000 -0.016514 0.643843 29 26 21
0.001173 0.021541 0.649272 69 63 67
0.001176 -0.031242 0.644431 3 0 0
0.001218 -0.029008 0.645023 64 60 57
0.029410 -0.050472 0.639934 108 108 100
0.001234 -0.002408 0.648788 17 12 16
0.029462 -0.030489 0.641506 14 10 7
0.001327 0.000724 0.647570 21 15 19
0.001327 0.000724 0.647570 21 15 19
0.001370 -0.017627 0.644217 106 106 98
0.001408 -0.053910 0.641659 115 112 107
0.001459 -0.069602 0.641380 138 123 102
0.029611 0.002480 0.645870 126 120 124
0.001723 0.007105 0.647113 17 7 15
0.001768 -0.047625 0.641606 14 10 7
0.001901 -0.032422 0.642458 116 115 111
0.029262 -0.019255 0.642319 120 117 110
0.001933 -0.033714 0.643446 15 14 10
0.002093 -0.060179 0.639921 64 64 54
0.029252 -0.014055 0.645309 107 107 99
0.002338 -0.016368 0.645690 41 38 31
0.002338 -0.016368 0.645690 41 38 31
0.029284 0.013429 0.647060 17 12 19
0.029184 0.018186 0.646598 22 15 22
0.002770 -0.036737 0.644869 111 110 105
0.002846 -0.068585 0.640853 31 24 14
0.002846 -0.068585 0.640853 31 24 14
0.002906 0.002125 0.646986 130 121 126
0.002906 0.002125 0.646986 130 121 126
0.002974 -0.004871 0.647388 112 103 104
0.029099 0.014288 0.646713 100 93 100
0.029099 0.014288 0.646713 100 93 100
0.003105 0.021227 0.648996 16 9 16
0.003188 0.016484 0.648789 81 72 77
0.003242 0.014091 0.648302 117 111 115
0.003236 -0.030650 0.644858 98 94 93
0.003266 -0.014966 0.645467 102 101 96
0.028781 -0.015895 0.644259 38 37 32
0.003354 -0.018815 0.644085 48 47 42
0.003594 -0.040295 0.642237 16 10 10
0.003594 -0.040295 0.642237 16 10 10
0.028484 -0.022030 0.641931 113 113 105
0.028324 -0.047542 0.639308 7 4 0
0.028335 -0.052347 0.639672 109 109 101
0.003674 -0.058701 0.638495 13 10 5
0.003854 -0.045461 0.642945 20 14 14
0.003916 -0.020809 0.645328 35 34 29
0.028261 -0.029974 0.640926 112 111 106
0.028389 -0.000394 0.645656 123 117 121
0.004150 -0.046447 0.641225 110 106 103
0.004214 -0.017741 0.646659 111 110 106
0.004279 -0.017728 0.645728 108 107 102
0.004282 -0.020410 0.644426 55 54 50
0.028071 -0.043112 0.640725 105 100 96
0.028071 -0.043112 0.640725 105 100 96
0.004572 -0.028592 0.642541 98 97 93
0.004642 -0.008271 0.646321 122 123 117
0.004642 -0.008271 0.646321 122 123 117
0.004713 0.021558 0.647314 81 70 76
0.027830 -0.057286 0.639579 124 123 118
0.004870 -0.016189 0.647684 26 23 18
0.028040 0.000782 0.644746 32 26 30
0.027986 -0.006485 0.644382 95 91 92
0.027798 -0.035452 0.639983 119 119 111
0.027762 -0.018892 0.642789 37 34 27
0.027668 -0.016084 0.642695 101 98 93
0.005116 -0.029979 0.643769 17 13 10
0.027668 -0.016084 0.642695 101 98 93
0.027623 -0.022632 0.641976 60 60 50
0.005241 -0.018390 0.644252 116 115 110
0.005252 -0.060402 0.640956 9 5 2
0.027574 -0.026304 0.642806 24 24 14
0.015589 0.011663 0.364909 30 23 30
0.005382 -0.056520 0.641521 54 51 46
0.027533 -0.007657 0.645139 67 63 62
0.005465 -0.005527 0.648046 110 106 105
0.005482 0.016470 0.648635 59 52 59
0.005475 -0.014985 0.644230 113 110 105
0.005524 -0.031722 0.642774 8 4 3
0.005569 -0.007659 0.646384 54 50 51
0.027364 -0.031784 0.642428 8 7 2
0.005659 -0.032526 0.642557 20 15 12
0.027279 -0.055136 0.641290 46 46 38
0.005844 -0.030531 0.643392 112 108 105
0.005916 -0.037603 0.643105 5 4 2
0.006224 -0.004597 0.648368 13 8 12
0.006188 -0.066109 0.641712 61 61 51
0.006253 -0.035059 0.644920 118 117 113
0.006311 -0.020811 0.645115 48 47 42
0.006343 0.017737 0.648900 79 73 77
0.006338 0.021275 0.647983 26 16 24
0.006303 -0.050556 0.640957 115 114 110
0.006411 0.018678 0.648716 28 22 24
0.006447 0.015176 0.648153 93 87 91
0.027275 -0.019917 0.642670 109 108 103
0.006441 0.009769 0.646439 21 14 21
0.027364 0.018314 0.646090 18 12 16
0.006728 -0.023226 0.642663 76 77 71
0.006728 -0.023226 0.642663 76 77 71
0.006728 -0.023226 0.642663 76 77 71
0.006709 -0.059517 0.640302 92 89 84
0.006712 -0.060186 0.639322 8 4 1
0.006780 -0.018174 0.645014 108 104 101
0.006892 -0.033978 0.643259 57 56 54
0.027175 -0.021684 0.642175 67 64 57
0.007011 -0.036562 0.640519 106 105 103
0.007163 -0.005827 0.646637 116 112 111
0.024672 0.001161 0.584768 102 96 98
0.007312 -0.016324 0.644519 28 25 20
0.007363 -0.006844 0.646927 127 123 120
0.007315 -0.058443 0.640536 6 2 1
0.007460 -0.020721 0.643611 58 57 52
0.007504 -0.059983 0.643446 27 23 20
0.007563 0.007672 0.649378 17 10 17
0.027057 -0.025368 0.642419 104 104 96
0.027022 -0.033174 0.642282 5 4 0
0.007698 0.009143 0.647943 16 9 16
0.007818 -0.014619 0.643768 120 120 112
0.007805 -0.061418 0.640275 12 7 3
0.007805 -0.061418 0.640275 12 7 3
0.007994 -0.019239 0.644845 21 20 18
0.007950 -0.047193 0.640138 10 4 4
0.008045 -0.031773 0.644369 12 8 7
0.026864 -0.027261 0.642022 115 114 109
0.026738 -0.048718 0.641372 102 99 94
0.026738 -0.048718 0.641372 102 99 94
0.008177 -0.041075 0.641720 9 3 5
0.008236 -0.015875 0.644804 41 40 36
0.026657 0.019035 0.647816 90 83 90
0.008435 0.016524 0.648265 19 12 19
0.008411 0.001631 0.644665 12 5 12
0.008509 -0.062272 0.637362 106 106 98
0.026279 -0.050688 0.640480 32 29 24
0.026596 0.020784 0.650019 67 60 67
0.008810 0.000648 0.648210 24 17 24
0.026300 -0.020189 0.642830 67 64 59
0.008872 -0.029785 0.644743 113 110 105
0.008979 -0.017420 0.645648 115 115 107
0.026248 -0.032450 0.641955 121 121 113
0.009030 -0.016342 0.644319 122 122 114
0.008976 -0.061733 0.639783 105 104 99
0.026313 -0.031271 0.644792 85 82 77
0.009228 -0.020061 0.643746 17 16 11
0.026135 -0.043330 0.640996 12 3 4
0.026135 -0.043330 0.640996 12 3 4
0.025898 -0.055298 0.636908 108 104 93
0.025955 -0.049994 0.640137 17 12 8
0.025840 -0.057239 0.637779 22 19 10
0.025894 -0.061864 0.640241 113 110 101
0.026031 -0.022552 0.644484 103 100 93
0.009464 -0.060188 0.639885 4 3 0
0.009585 -0.018748 0.643784 106 106 98
0.009687 0.015757 0.648681 26 20 24
0.026044 -0.017501 0.646123 120 117 110
0.009747 0.014700 0.647747 93 88 92
0.026031 0.008641 0.646401 58 48 57
0.009787 -0.000220 0.644441 21 12 17
0.009805 -0.068302 0.639876 23 17 3
0.009805 -0.068302 0.639876 23 17 3
0.009945 -0.033498 0.642770 109 106 101
0.009936 -0.039302 0.640681 104 100 99
0.009936 -0.039302 0.640681 104 100 99
0.025601 -0.032974 0.638723 110 110 100
0.025601 -0.032974 0.638723 110 110 100
0.010023 -0.031978 0.642297 100 97 92
0.025723 0.007689 0.646730 9 0 10
0.025448 -0.045426 0.640092 117 112 109
0.010185 0.001827 0.645296 25 18 25
0.010203 -0.016133 0.645712 43 39 36
0.025448 -0.045426 0.640092 117 112 109
0.010454 -0.027915 0.643587 113 110 105
0.010454 -0.027915 0.643587 113 110 105
0.010456 -0.049257 0.640779 107 106 101
0.025620 0.002102 0.645593 20 10 18
0.010602 -0.000620 0.645210 129 120 125
0.010603 -0.045351 0.643142 63 59 58
0.010675 -0.014890 0.645706 123 122 117
0.025562 -0.008129 0.645802 112 111 107
0.010823 -0.031813 0.642397 54 50 47
0.010820 -0.057420 0.641035 117 116 111
0.011098 0.007918 0.646965 14 7 15
0.011131 -0.018928 0.644101 17 16 12
0.011131 -0.018928 0.644101 17 16 12
0.025084 -0.058750 0.639773 67 60 54
0.011365 0.006030 0.647109 87 80 88
0.011463 -0.000639 0.646993 19 9 17
0.011472 0.020145 0.643983 82 76 80
0.011635 0.001265 0.647980 25 18 25
0.025072 -0.036785 0.642464 108 105 98
0.025051 -0.015642 0.643259 19 18 13
0.025160 0.006400 0.647474 44 34 42
0.024875 -0.058372 0.640699 37 30 24
0.024875 -0.058372 0.640699 37 30 24
0.024875 -0.058372 0.640699 37 30 24
0.024909 -0.023593 0.641846 108 109 103
0.025001 0.009654 0.646608 67 57 66
0.019809 0.012542 0.513249 19 12 19
0.024975 0.015894 0.646918 19 12 19
0.011904 -0.032963 0.642639 111 110 105
0.024908 -0.030694 0.646417 112 112 104
0.012169 -0.017721 0.643974 111 108 101
0.012166 -0.041248 0.642654 10 1 4
0.012382 -0.015970 0.645002 25 25 17
0.012427 -0.043498 0.641826 9 3 5
0.024759 0.014435 0.645865 93 86 93
0.012517 -0.024565 0.644389 109 109 99
0.012661 0.002524 0.646704 98 91 98
0.024700 -0.026289 0.644004 10 9 5
0.024700 -0.026289 0.644004 10 9 5
0.012824 0.019740 0.648463 108 99 104
0.012845 -0.010397 0.646228 117 116 111
