-0.04193 0.04354 0.32394
-0.04100 0.04248 0.32409
-0.03978 0.04301 0.32398
-0.03936 0.04042 0.32362
-0.03936 0.04042 0.32362
0.03785 -0.02131 0.58531
0.03188 -0.00075 0.46276
0.03188 -0.00075 0.46276
0.04107 -0.05452 0.47211
0.04107 -0.05452 0.47211
0.04667 -0.05284 0.46829
0.04803 -0.05462 0.46870
0.04881 -0.05333 0.46938
0.05771 0.03358 0.46375
0.06045 -0.01811 0.46157
0.10180 0.05502 0.34867
0.10245 0.06095 0.34897
0.10248 0.05973 0.34882
0.10281 0.05938 0.34889
0.10281 0.05938 0.34889
0.10288 0.06267 0.34899
0.10286 0.05490 0.34865
0.10296 0.06180 0.34902
0.10293 0.06098 0.34884
0.10296 0.05668 0.34856
0.10301 0.06058 0.34867
0.10308 0.04281 0.34749
0.10346 0.05767 0.34859
0.14391 0.07685 0.48341
0.10361 0.04320 0.34759
0.18514 0.10416 0.60020
0.17214 0.09076 0.55540
0.17214 0.09076 0.55540
0.10852 0.05707 0.34855
0.10852 0.05707 0.34855
0.15191 0.08751 0.48380
0.14367 0.07220 0.45429
0.17734 0.08715 0.55521
0.17798 0.09564 0.55592
0.19624 0.10222 0.60937
0.17902 0.08924 0.55546
0.10765 0.05495 0.33290
0.19723 0.10354 0.60152
0.11438 -0.03150 0.34329
0.16279 0.08630 0.48532
0.12982 0.06843 0.38532
0.12982 0.06843 0.38532
0.11766 0.05526 0.34899
0.14676 0.07247 0.42882
0.15631 0.07793 0.45562
0.16208 0.08376 0.47027
0.11924 0.00046 0.34543
0.11949 0.00343 0.34563
0.11951 -0.00079 0.34547
0.11951 -0.00079 0.34547
0.11070 0.05288 0.31931
0.12011 -0.00096 0.34548
0.12015 0.00131 0.34557
0.12015 0.00131 0.34557
0.12019 0.00066 0.34550
0.12053 0.00508 0.34569
0.12057 0.00407 0.34577
0.17466 0.00223 0.50081
0.17466 0.00223 0.50081
0.17429 0.00189 0.49810
0.11184 0.05075 0.31928
0.12110 0.00203 0.34563
0.12110 0.00203 0.34563
0.13919 0.07240 0.39706
0.12118 0.00409 0.34567
0.12134 -0.00031 0.34539
0.12210 0.02156 0.34679
0.12175 0.00317 0.34573
0.12175 0.00317 0.34573
0.12199 0.00858 0.34622
0.12179 0.00202 0.34565
0.12176 -0.00179 0.34548
0.12200 0.00856 0.34613
0.12264 0.02785 0.34728
0.12264 0.02785 0.34728
0.12221 0.00984 0.34600
0.12256 0.02193 0.34686
0.12256 0.02193 0.34686
0.12235 0.00742 0.34609
0.12218 -0.00394 0.34537
0.12299 0.02486 0.34735
0.10863 0.05433 0.30667
0.10863 0.05433 0.30667
0.12304 0.02625 0.34715
0.12248 -0.00482 0.34539
0.12321 0.02785 0.34718
0.12309 0.02197 0.34682
0.12277 0.00552 0.34584
0.12277 0.00552 0.34584
0.12324 0.02441 0.34712
0.12322 0.02001 0.34680
0.12325 0.01855 0.34659
0.12387 0.04334 0.34817
0.12366 0.02738 0.34735
0.12349 0.02109 0.34684
0.12362 0.02406 0.34715
0.12354 0.01958 0.34683
0.12333 0.00946 0.34597
0.12333 0.00946 0.34597
0.12318 -0.00461 0.34535
0.12318 -0.00461 0.34535
0.12322 0.00289 0.34533
0.12456 0.04389 0.34843
0.12456 0.04389 0.34843
0.12454 0.04293 0.34836
0.12355 0.00129 0.34559
0.12355 0.00129 0.34559
0.12355 0.00191 0.34558
0.12422 0.02492 0.34712
0.12399 0.01068 0.34635
0.12384 -0.00307 0.34535
0.12477 0.02599 0.34737
0.12518 0.04425 0.34841
0.12518 0.04425 0.34841
0.12523 0.04362 0.34847
0.12464 0.01899 0.34680
0.12469 0.02208 0.34687
0.12520 0.04149 0.34818
0.12532 0.04116 0.34825
0.12532 0.04116 0.34825
0.12485 0.01989 0.34688
0.12458 0.00813 0.34610
0.12470 0.01108 0.34603
0.12600 0.05393 0.34929
0.12461 -0.00752 0.34530
0.12540 0.02810 0.34741
0.12574 0.04385 0.34835
0.12576 0.04290 0.34823
0.15821 0.05182 0.43802
0.12585 0.04343 0.34841
0.12541 0.01990 0.34687
0.12553 0.02116 0.34692
0.12553 0.02116 0.34692
0.13940 0.06216 0.38521
0.12529 0.00704 0.34617
0.12567 0.02703 0.34718
0.12500 -0.00502 0.34517
0.12506 -0.00587 0.34522
0.12535 0.00097 0.34600
0.12572 0.01852 0.34694
0.12572 0.01852 0.34694
0.12646 0.04639 0.34858
0.12646 0.04639 0.34858
0.12588 0.01952 0.34695
0.12611 0.02956 0.34758
0.12659 0.04712 0.34870
0.12588 0.01065 0.34655
0.12588 0.01065 0.34655
0.12656 0.04254 0.34837
0.12610 0.01977 0.34685
0.12632 0.02207 0.34708
0.12632 0.02207 0.34708
0.12697 0.04749 0.34872
0.12696 0.04670 0.34866
0.12696 0.04670 0.34866
0.12575 -0.00172 0.34494
0.12635 0.01882 0.34658
0.18942 0.08931 0.51940
0.13369 0.06468 0.36645
0.12685 0.02873 0.34750
0.12740 0.05109 0.34900
0.12744 0.05044 0.34898
0.12744 0.05044 0.34898
0.12736 0.04711 0.34874
0.12629 -0.00023 0.34581
0.12629 -0.00023 0.34581
0.14068 0.06145 0.38515
0.14068 0.06145 0.38515
0.12685 0.02632 0.34729
0.12632 0.00166 0.34582
0.12741 0.04621 0.34871
0.12736 0.04397 0.34855
0.12743 0.04666 0.34874
0.12743 0.04666 0.34874
0.12740 0.04548 0.34864
0.12740 0.04192 0.34843
0.12656 -0.00130 0.34570
0.12748 0.04082 0.34822
0.12643 -0.00995 0.34531
0.12776 0.04744 0.34861
0.12784 0.04582 0.34871
0.12773 0.04491 0.34835
0.12717 0.01871 0.34682
0.12787 0.04656 0.34866
0.12700 0.00446 0.34610
0.12791 0.04142 0.34841
0.12673 -0.00949 0.34517
0.12673 -0.00949 0.34517
0.12673 -0.00949 0.34517
0.12825 0.04694 0.34880
0.12847 0.05224 0.34895
0.13155 0.05350 0.35733
0.12846 0.04627 0.34869
0.12733 -0.00661 0.34536
0.12811 0.02628 0.34740
0.12854 0.04404 0.34854
0.12854 0.04399 0.34851
0.12829 0.02921 0.34781
0.12829 0.02921 0.34781
0.12814 0.02031 0.34703
0.12814 0.02031 0.34703
0.12919 0.05394 0.34920
0.12861 0.02772 0.34750
0.16491 0.02829 0.44552
0.12808 0.00026 0.34572
0.12937 0.05107 0.34901
0.12806 -0.00863 0.34524
0.12933 0.04514 0.34863
0.12933 0.04514 0.34863
0.12910 0.02856 0.34760
0.12900 0.01937 0.34710
0.14268 0.05578 0.38386
0.12871 0.00310 0.34617
0.12876 0.01146 0.34619
0.11911 0.05410 0.31978
0.12998 0.04745 0.34887
0.16603 0.02583 0.44563
0.12948 0.02810 0.34744
0.12943 0.02631 0.34716
0.13020 0.05262 0.34923
0.13011 0.04788 0.34883
0.12908 0.00331 0.34607
0.13021 0.04559 0.34894
0.12912 0.00115 0.34595
0.13015 0.04170 0.34856
0.13015 0.04170 0.34856
0.13032 0.04691 0.34892
0.13037 0.04632 0.34899
0.13037 0.04632 0.34899
0.12958 0.01671 0.34666
0.12997 0.02652 0.34746
0.12997 0.02652 0.34746
0.13058 0.04821 0.34896
0.13070 0.05106 0.34916
0.13070 0.05106 0.34916
0.13070 0.05106 0.34916
0.13059 0.04573 0.34886
0.13059 0.04573 0.34886
0.13063 0.04660 0.34883
0.13063 0.04660 0.34883
0.13008 0.02055 0.34714
0.13016 0.02160 0.34719
0.12968 0.00108 0.34588
0.13095 0.05215 0.34922
0.12973 0.00175 0.34593
0.12973 0.00062 0.34589
0.12988 -0.00605 0.34628
0.12894 -0.03059 0.34377
0.13101 0.04789 0.34911
0.13096 0.04833 0.34894
0.17115 0.07823 0.45600
0.12992 0.00283 0.34612
0.12992 0.00283 0.34612
0.13037 0.01875 0.34730
0.13088 0.04356 0.34864
0.13088 0.04356 0.34864
0.13103 0.04704 0.34889
0.13090 0.04166 0.34849
0.13090 0.04166 0.34849
0.12930 -0.03144 0.34415
0.12996 0.00009 0.34590
0.12996 0.00009 0.34590
0.13104 0.04538 0.34874
0.13120 0.05078 0.34912
0.13120 0.05078 0.34912
0.13084 0.02711 0.34758
0.12971 -0.02138 0.34453
0.13141 0.04811 0.34903
0.12992 -0.00635 0.34466
0.13152 0.04554 0.34871
0.13152 0.04554 0.34871
0.16800 0.02798 0.44543
0.16800 0.02798 0.44543
0.13090 0.01877 0.34707
0.13174 0.05229 0.34923
0.13069 0.00328 0.34617
0.13047 -0.00724 0.34558
0.13022 -0.02003 0.34484
0.13019 -0.01895 0.34469
0.13179 0.04599 0.34890
0.13101 0.01392 0.34681
0.13101 0.01392 0.34681
0.13066 -0.00082 0.34585
0.13123 0.02406 0.34731
0.13101 0.01308 0.34671
0.13180 0.04916 0.34878
0.13026 -0.01980 0.34463
0.13096 0.00666 0.34644
0.13187 0.04531 0.34880
0.13145 0.02774 0.34759
0.13195 0.04563 0.34872
0.13195 0.04563 0.34872
0.13208 0.04772 0.34904
0.13040 -0.02099 0.34453
0.13220 0.05171 0.34922
0.13208 0.04717 0.34883
0.13210 0.04469 0.34874
0.13215 0.04672 0.34881
0.13256 0.05401 0.34957
0.13245 0.05104 0.34911
0.13933 0.05816 0.36707
0.13260 0.05135 0.34924
0.13117 -0.00552 0.34538
0.13150 0.00304 0.34618
0.13153 -0.00031 0.34610
0.14303 0.02781 0.37614
0.13128 -0.01051 0.34514
0.13130 -0.01120 0.34519
0.13108 -0.02142 0.34443
0.13108 -0.02142 0.34443
0.13117 -0.01999 0.34464
0.13116 -0.00414 0.34460
0.14301 0.02854 0.37575
0.13246 0.02723 0.34758
0.13246 0.02723 0.34758
0.13295 0.04567 0.34887
0.13295 0.04567 0.34887
0.13211 0.00337 0.34623
0.13185 -0.00696 0.34548
0.13331 0.03750 0.34931
0.13320 0.04421 0.34859
0.13221 -0.00083 0.34590
0.13221 -0.00083 0.34590
0.13225 -0.00131 0.34598
0.13250 0.00983 0.34653
0.13270 0.01276 0.34696
0.14750 0.06482 0.38559
0.13398 0.06175 0.34966
0.13295 0.00741 0.34660
0.13287 0.00303 0.34631
0.13374 0.04166 0.34854
0.13288 0.00295 0.34622
0.13345 0.02030 0.34731
0.13255 -0.01959 0.34489
0.13422 0.04656 0.34893
0.13293 -0.00480 0.34523
0.13274 -0.02079 0.34465
0.18704 0.07959 0.48557
0.13314 -0.00765 0.34546
0.13405 0.02632 0.34764
0.13362 0.00334 0.34631
0.13472 0.04642 0.34907
0.13319 -0.01358 0.34500
0.13462 0.02212 0.34743
0.13426 0.00308 0.34604
0.13475 0.02034 0.34731
0.13475 0.02034 0.34731
0.13414 -0.00981 0.34539
0.13574 0.05396 0.34940
0.13499 0.02182 0.34734
0.12448 0.05731 0.32013
0.12448 0.05731 0.32013
0.13513 0.02132 0.34747
0.13574 0.04755 0.34899
0.13593 0.04965 0.34936
0.13504 0.01129 0.34701
0.13574 0.04277 0.34883
0.13574 0.04277 0.34883
0.13533 0.02219 0.34766
0.13590 0.04585 0.34907
0.13590 0.04585 0.34907
0.13544 0.02813 0.34772
0.13602 0.05113 0.34917
0.13581 0.04099 0.34862
0.13620 0.05039 0.34923
0.13540 0.01676 0.34710
0.13548 0.01441 0.34729
0.13623 0.04997 0.34915
0.13646 0.05079 0.34938
0.13626 0.04423 0.34887
0.15912 0.07230 0.40709
0.13528 -0.00871 0.34564
0.13679 0.05254 0.34947
0.13672 0.04783 0.34903
0.13634 0.02662 0.34784
0.13678 0.04166 0.34875
0.13667 0.03408 0.34845
0.13591 0.00339 0.34642
0.13558 -0.00822 0.34549
0.13558 -0.00822 0.34549
0.11569 0.05150 0.29480
0.13715 0.04813 0.34914
0.13715 0.04813 0.34914
0.16559 0.02567 0.42153
0.13550 -0.01822 0.34493
0.13572 -0.01173 0.34549
0.13750 0.05562 0.34998
0.13717 0.04598 0.34904
0.13722 0.04715 0.34900
0.13429 0.04271 0.34150
0.13667 0.02162 0.34754
0.13667 0.02162 0.34754
0.13667 0.02162 0.34754
0.13738 0.04862 0.34913
0.13622 -0.00076 0.34615
0.13622 -0.00076 0.34615
0.13695 0.02405 0.34800
0.13696 0.02399 0.34776
0.13696 0.02399 0.34776
0.13629 -0.00170 0.34599
0.13755 0.04756 0.34912
0.13707 0.02579 0.34783
0.13758 0.05000 0.34906
0.13734 0.03550 0.34840
0.13710 0.02639 0.34773
0.13766 0.04679 0.34902
0.13766 0.04679 0.34902
0.13755 0.04026 0.34870
0.13751 0.03505 0.34847
0.13752 0.03919 0.34850
0.13760 0.03694 0.34849
0.13760 0.03694 0.34849
0.13760 0.03692 0.34838
0.13760 0.03692 0.34838
0.13794 0.04656 0.34912
0.13794 0.04656 0.34912
0.13763 0.03424 0.34832
0.13763 0.03424 0.34832
0.13812 0.05047 0.34925
0.13812 0.05047 0.34925
0.13778 0.03535 0.34838
0.13778 0.03535 0.34838
0.13702 0.00284 0.34645
0.13802 0.04644 0.34897
0.13730 0.01452 0.34713
0.13730 0.01452 0.34713
0.13801 0.04603 0.34893
0.13769 0.02717 0.34800
0.13658 -0.01718 0.34515
0.13786 0.03274 0.34835
0.13651 -0.01872 0.34491
0.13829 0.05185 0.34936
0.13782 0.02723 0.34802
0.13782 0.02723 0.34802
0.13717 0.00180 0.34639
0.13751 0.01579 0.34722
0.13827 0.04914 0.34911
0.13827 0.04914 0.34911
0.13821 0.04702 0.34892
0.13844 0.05102 0.34948
0.13804 0.03496 0.34839
0.13722 -0.00012 0.34626
0.13722 -0.00012 0.34626
0.13667 -0.02141 0.34488
0.13814 0.03592 0.34840
0.13814 0.03592 0.34840
0.13814 0.03592 0.34840
0.13725 -0.00145 0.34611
0.13841 0.04618 0.34902
0.13683 -0.01822 0.34502
0.13683 -0.01822 0.34502
0.13842 0.03893 0.34894
0.13793 0.02138 0.34765
0.13793 0.02138 0.34765
0.13772 0.01522 0.34712
0.13772 0.01522 0.34712
0.13689 -0.01930 0.34497
0.13848 0.04575 0.34896
0.13865 0.05204 0.34929
0.13846 0.03938 0.34870
0.13846 0.03938 0.34870
0.13873 0.04723 0.34910
0.13873 0.04723 0.34910
0.13783 0.00831 0.34680
0.13770 0.00301 0.34648
0.13710 -0.01744 0.34490
0.13765 -0.00062 0.34629
0.13880 0.04688 0.34914
0.13706 -0.02023 0.34474
0.13904 0.05397 0.34956
0.13909 0.05121 0.34931
0.13842 0.02118 0.34756
0.13877 0.03548 0.34840
0.13760 -0.01181 0.34540
0.13760 -0.01181 0.34540
0.13906 0.04087 0.34897
0.13866 0.02811 0.34789
0.13865 0.02642 0.34780
0.13865 0.02642 0.34780
0.13823 0.00337 0.34648
0.13823 0.00337 0.34648
0.13920 0.04422 0.34889
0.13920 0.04422 0.34889
0.13924 0.04470 0.34887
0.13786 -0.01321 0.34534
0.13822 -0.00075 0.34624
0.14865 0.04578 0.37229
0.13936 0.04867 0.34901
0.13915 0.03513 0.34843
0.13957 0.05253 0.34944
0.13886 0.02024 0.34761
0.13886 0.02024 0.34761
0.13923 0.03514 0.34852
0.13882 0.01825 0.34731
0.13877 0.01500 0.34711
0.13940 0.03645 0.34851
0.13921 0.02738 0.34798
0.13804 -0.02093 0.34496
0.13969 0.04399 0.34898
0.13817 -0.01976 0.34512
0.13813 -0.01950 0.34498
0.13855 -0.00570 0.34598
0.13964 0.03937 0.34855
0.13964 0.03937 0.34855
0.14027 0.05942 0.34996
0.14027 0.05942 0.34996
0.16268 0.02570 0.40577
0.13839 -0.01995 0.34498
0.13839 -0.01995 0.34498
0.13839 -0.01995 0.34498
0.15024 0.00311 0.37438
0.14066 0.06189 0.35047
0.14032 0.05158 0.34933
0.13860 -0.01912 0.34503
0.13873 -0.01351 0.34537
0.13873 -0.01351 0.34537
0.13983 0.02780 0.34810
0.14057 0.06029 0.34993
0.14057 0.06029 0.34993
0.14056 0.06023 0.34992
0.13958 0.02305 0.34745
0.14002 0.03783 0.34856
0.13924 0.00200 0.34644
0.14020 0.03867 0.34877
0.13876 -0.02048 0.34512
0.14013 0.03551 0.34850
0.13995 0.02115 0.34804
0.14059 0.05219 0.34957
0.13921 0.00158 0.34611
0.13921 0.00158 0.34611
0.13886 -0.01850 0.34520
0.14049 0.04762 0.34918
0.14049 0.04762 0.34918
0.14007 0.02812 0.34810
0.14030 0.03694 0.34859
0.14030 0.03694 0.34859
0.13985 0.01341 0.34732
0.13985 0.01341 0.34732
0.14082 0.04980 0.34936
0.13907 -0.02101 0.34497
0.13980 0.00333 0.34663
0.13980 0.00333 0.34663
0.13924 -0.01791 0.34525
0.13924 -0.01791 0.34525
0.14045 0.02679 0.34814
0.14073 0.04140 0.34881
0.14092 0.04837 0.34918
0.14092 0.04837 0.34918
0.14091 0.04790 0.34914
0.14072 0.03746 0.34866
0.14072 0.03746 0.34866
0.13930 -0.01868 0.34515
0.13926 -0.02054 0.34498
0.14102 0.04713 0.34927
0.14066 0.03450 0.34838
0.13934 -0.01944 0.34500
0.14013 0.00112 0.34650
0.13961 -0.01824 0.34522
0.13961 -0.01824 0.34522
0.13957 -0.01967 0.34508
0.13957 -0.01967 0.34508
0.14019 0.00015 0.34641
0.14134 0.04668 0.34925
0.13959 -0.02087 0.34491
0.14132 0.04594 0.34905
0.14143 0.05071 0.34932
0.14117 0.03692 0.34860
0.14117 0.03692 0.34860
0.14015 -0.01081 0.34598
0.14135 0.04295 0.34885
0.13984 -0.02027 0.34508
0.14146 0.05180 0.34898
0.14097 0.02157 0.34766
0.13998 -0.01875 0.34514
0.14136 0.03430 0.34850
0.12447 0.05386 0.30684
0.14099 0.01920 0.34749
0.14099 0.01920 0.34749
0.14172 0.04694 0.34910
0.14150 0.03551 0.34853
0.14011 -0.02139 0.34504
0.14011 -0.02139 0.34504
0.14116 0.02059 0.34763
0.14116 0.02059 0.34763
0.14175 0.04615 0.34906
0.14183 0.04771 0.34922
0.14180 0.04666 0.34913
0.14089 0.00300 0.34669
0.14182 0.04402 0.34896
0.14189 0.04485 0.34900
0.14168 0.03490 0.34848
0.13629 -0.00125 0.33521
0.14093 -0.00075 0.34641
0.14093 -0.00075 0.34641
0.14060 -0.01341 0.34555
0.14178 0.03418 0.34845
0.14154 0.02177 0.34779
0.14212 0.04565 0.34901
0.14212 0.04565 0.34901
0.14160 0.02213 0.34768
0.14219 0.04643 0.34913
0.14233 0.05397 0.34940
0.14154 0.01593 0.34745
0.14171 0.02849 0.34786
0.14168 0.01542 0.34737
0.14215 0.03445 0.34852
0.17546 0.07058 0.43001
0.14251 0.04686 0.34915
0.14251 0.04686 0.34915
0.14251 0.04602 0.34910
0.14253 0.04639 0.34906
0.14253 0.04639 0.34906
0.14203 0.02794 0.34782
0.14261 0.04813 0.34920
0.14226 0.03306 0.34828
0.14213 0.02602 0.34795
0.14271 0.04768 0.34933
0.14158 0.00110 0.34644
0.14221 0.02088 0.34782
0.14281 0.04927 0.34926
0.14281 0.04927 0.34926
0.14245 0.02394 0.34822
0.14285 0.04350 0.34907
0.14187 0.00337 0.34660
0.14265 0.03462 0.34850
0.15350 0.00112 0.37492
0.15350 0.00112 0.37492
0.14225 0.01482 0.34737
0.14231 0.01269 0.34746
0.14299 0.04121 0.34903
0.14299 0.04121 0.34903
0.14290 0.03825 0.34870
0.14321 0.05119 0.34941
0.14279 0.02641 0.34800
0.15812 0.04841 0.38522
0.14187 -0.01167 0.34560
0.14309 0.03606 0.34842
0.14349 0.04994 0.34937
0.14340 0.04572 0.34915
0.14340 0.04572 0.34915
0.14283 0.01538 0.34732
0.13155 0.05298 0.31989
0.14364 0.04847 0.34925
0.14364 0.04847 0.34925
0.14290 0.01432 0.34733
0.14366 0.04423 0.34906
0.14366 0.04423 0.34906
0.14293 0.01581 0.34721
0.14358 0.03706 0.34872
0.14386 0.05117 0.34939
0.14386 0.05117 0.34939
0.14300 0.01892 0.34726
0.14300 0.01892 0.34726
0.14356 0.03433 0.34844
0.15874 0.04723 0.38519
0.14371 0.03549 0.34856
0.14396 0.04677 0.34900
0.14396 0.04677 0.34900
0.14364 0.02689 0.34813
0.14412 0.04715 0.34927
0.14318 0.00111 0.34676
0.15900 0.04656 0.38503
0.14403 0.03626 0.34869
0.14421 0.04517 0.34903
0.14429 0.05186 0.34921
0.14436 0.05148 0.34933
0.14405 0.03432 0.34849
0.14380 0.02204 0.34783
0.14442 0.04791 0.34930
0.13990 0.04214 0.33822
0.14433 0.04369 0.34892
0.14433 0.04369 0.34892
0.14437 0.04595 0.34899
0.14444 0.04632 0.34906
0.14462 0.05090 0.34938
0.14462 0.05090 0.34938
0.14001 0.04098 0.33823
0.14358 0.00333 0.34668
0.14358 0.00333 0.34668
0.14355 0.00150 0.34659
0.14465 0.04551 0.34915
0.14359 -0.00063 0.34646
0.14426 0.02859 0.34803
0.14455 0.04012 0.34872
0.14402 0.01477 0.34733
0.14409 0.01248 0.34740
0.14491 0.05143 0.34930
0.14460 0.03545 0.34853
0.14474 0.04056 0.34874
0.14474 0.04056 0.34874
0.14498 0.05183 0.34930
0.14498 0.04721 0.34915
0.14456 0.02459 0.34798
0.14483 0.03972 0.34854
0.14483 0.03972 0.34854
0.14514 0.04563 0.34915
0.14514 0.04563 0.34915
0.16913 0.07344 0.40684
0.14320 -0.03082 0.34446
0.14519 0.04688 0.34916
0.14525 0.04773 0.34923
0.14525 0.04773 0.34923
0.14495 0.03431 0.34852
0.14495 0.03431 0.34852
0.14522 0.04610 0.34909
0.14529 0.04652 0.34920
0.14513 0.03884 0.34879
0.14513 0.03884 0.34879
0.14509 0.03688 0.34867
0.14520 0.04144 0.34890
0.14472 0.02068 0.34770
0.14472 0.02068 0.34770
0.13314 0.05472 0.31978
0.14380 -0.01780 0.34531
0.14558 0.05396 0.34959
0.14380 -0.02042 0.34530
0.15509 0.04660 0.37238
0.14498 0.02670 0.34800
0.14379 -0.01933 0.34506
0.14379 -0.01933 0.34506
0.14444 0.00021 0.34656
0.14444 0.00021 0.34656
0.14394 -0.01833 0.34519
0.14453 0.00128 0.34658
0.14550 0.04046 0.34883
0.14565 0.04681 0.34911
0.14501 0.01949 0.34754
0.14529 0.02623 0.34808
0.14554 0.03548 0.34866
0.14403 -0.01996 0.34503
0.14576 0.04756 0.34911
0.14576 0.04756 0.34911
0.14581 0.04644 0.34920
0.14566 0.03826 0.34881
0.14557 0.03883 0.34847
0.14557 0.03883 0.34847
0.14517 0.01731 0.34737
0.16100 0.04890 0.38518
0.14565 0.02801 0.34818
0.14565 0.02801 0.34818
0.14552 0.02017 0.34778
0.14577 0.03366 0.34838
0.14448 -0.01816 0.34528
0.14468 -0.01399 0.34561
0.14519 0.00354 0.34676
0.14519 0.00354 0.34676
0.14601 0.03474 0.34858
0.14576 0.02103 0.34784
0.14576 0.02103 0.34784
0.14629 0.04404 0.34906
0.14470 -0.01926 0.34518
0.14599 0.02567 0.34819
0.14569 0.01499 0.34746
0.14599 0.02634 0.34810
0.14474 -0.02035 0.34512
0.14474 -0.02035 0.34512
0.14672 0.04931 0.34973
0.14672 0.04931 0.34973
0.14656 0.04558 0.34932
0.14656 0.04558 0.34932
0.14633 0.03535 0.34869
0.14596 0.01668 0.34763
0.14501 -0.01788 0.34532
0.14665 0.04676 0.34920
0.14640 0.03437 0.34856
0.14607 0.02120 0.34776
0.14607 0.02120 0.34776
0.17103 0.07113 0.40674
0.17103 0.07113 0.40674
0.15677 0.02918 0.37268
0.14669 0.03837 0.34867
0.14524 -0.02018 0.34514
0.14529 -0.01920 0.34524
0.14716 0.05488 0.34956
0.14685 0.03792 0.34878
0.14248 0.04261 0.33829
0.14545 -0.01974 0.34519
0.14670 0.02549 0.34811
0.14691 0.03459 0.34852
0.14699 0.03881 0.34871
0.14726 0.04723 0.34929
0.14713 0.03827 0.34884
0.14727 0.04363 0.34906
0.14730 0.04134 0.34902
0.14577 -0.01777 0.34535
0.14572 -0.01837 0.34514
0.14572 -0.01837 0.34514
0.14719 0.03511 0.34860
0.14642 -0.00084 0.34657
0.14642 -0.00084 0.34657
0.14618 -0.01569 0.34581
0.14734 0.03433 0.34852
0.14603 -0.02046 0.34521
0.14603 -0.02046 0.34521
0.15751 0.04685 0.37235
0.14780 0.04817 0.34930
0.14690 0.00823 0.34701
0.14730 0.01197 0.34793
0.14781 0.04583 0.34912
0.14619 -0.01966 0.34521
0.14628 -0.01880 0.34531
0.14643 -0.01351 0.34562
0.14703 0.00247 0.34678
0.14707 0.00336 0.34684
0.14809 0.04424 0.34911
0.14734 0.02267 0.34730
0.14758 0.02163 0.34783
0.16325 0.02274 0.38466
0.14823 0.05060 0.34924
0.14818 0.04507 0.34911
0.14784 0.02756 0.34826
0.14831 0.05103 0.34930
0.14831 0.05103 0.34930
0.14784 0.02748 0.34815
0.14668 -0.01925 0.34528
0.14668 -0.01774 0.34527
0.14668 -0.01774 0.34527
0.14775 0.02429 0.34772
0.14693 -0.01935 0.34559
0.14795 0.01290 0.34787
0.14667 -0.02129 0.34481
0.14692 -0.01718 0.34540
0.14817 0.03448 0.34833
0.14855 0.04535 0.34897
0.14872 0.04922 0.34934
0.14822 0.02834 0.34816
0.14886 0.05398 0.34954
0.14882 0.05264 0.34944
0.14731 -0.01321 0.34581
0.14880 0.04572 0.34919
0.14780 0.00157 0.34682
0.14893 0.04708 0.34945
0.14718 -0.01961 0.34525
0.14783 0.00294 0.34674
0.14783 0.00294 0.34674
0.14423 0.04037 0.33828
0.14721 -0.01915 0.34524
0.14890 0.04714 0.34915
0.14891 0.04621 0.34911
0.14804 0.00424 0.34694
0.14886 0.04217 0.34883
0.14851 0.02114 0.34795
0.14851 0.02173 0.34779
0.14745 -0.01834 0.34528
0.14745 -0.01834 0.34528
0.14928 0.05113 0.34936
0.14916 0.04588 0.34909
0.14923 0.04779 0.34916
0.14923 0.04779 0.34916
0.13629 0.04530 0.31876
0.14859 0.01329 0.34752
0.14768 -0.01771 0.34531
0.14464 0.04028 0.33813
0.14972 0.05902 0.34984
0.15414 0.04389 0.36012
0.14781 -0.01932 0.34526
0.14959 0.04845 0.34931
0.14912 0.02633 0.34811
0.14912 0.02633 0.34811
0.14854 0.00335 0.34674
0.14854 0.00335 0.34674
0.14973 0.04715 0.34918
0.14961 0.04142 0.34887
0.13581 0.01527 0.31667
0.14903 0.01432 0.34745
0.15000 0.05834 0.34970
0.18432 0.06741 0.42958
0.14926 0.02100 0.34773
0.14910 0.01349 0.34715
0.15002 0.04828 0.34923
0.15009 0.04567 0.34910
0.15009 0.04567 0.34910
0.14846 -0.01913 0.34520
0.14858 -0.01797 0.34542
0.15042 0.05248 0.34955
0.15043 0.05562 0.34954
0.14858 -0.02037 0.34522
0.15496 0.04228 0.36002
0.14877 -0.01750 0.34547
0.15022 0.04298 0.34883
0.14870 -0.01992 0.34520
0.14933 -0.00208 0.34660
0.14948 0.00281 0.34682
0.15065 0.04799 0.34933
0.14945 -0.00152 0.34651
0.15073 0.05085 0.34934
0.15065 0.04774 0.34911
0.13243 0.05201 0.30685
0.15031 0.02788 0.34822
0.14944 -0.00829 0.34615
0.13929 0.00192 0.32262
0.14932 -0.01180 0.34579
0.15071 0.04405 0.34897
0.14973 -0.00880 0.34606
0.15114 0.05119 0.34927
0.15111 0.03770 0.34918
0.15048 0.00765 0.34770
0.15018 0.00087 0.34675
0.15125 0.04554 0.34903
0.14634 0.04407 0.33770
0.15128 0.04859 0.34907
0.15035 0.00152 0.34668
0.15065 0.01240 0.34732
0.15037 -0.00034 0.34660
0.15078 0.01675 0.34754
0.15154 0.05099 0.34929
0.15149 0.04923 0.34915
0.15165 0.04681 0.34904
0.15170 0.04378 0.34905
0.15067 -0.00143 0.34665
0.15460 0.02672 0.35561
0.15460 0.02672 0.35561
0.15190 0.04834 0.34928
0.15190 0.04834 0.34928
0.15190 0.05024 0.34923
0.15190 0.05024 0.34923
0.15185 0.04793 0.34905
0.15109 0.01390 0.34727
0.15197 0.04639 0.34904
0.15193 0.04508 0.34891
0.15103 0.00275 0.34681
0.15155 0.02707 0.34770
0.15155 0.02707 0.34770
0.15213 0.04727 0.34903
0.15151 0.02121 0.34762
0.15072 -0.01303 0.34571
0.15182 0.02804 0.34817
0.15182 0.02804 0.34817
0.15252 0.05981 0.34966
0.15230 0.04564 0.34880
0.15140 0.00300 0.34673
0.14077 0.00114 0.32237
0.15244 0.04422 0.34892
0.15244 0.04422 0.34892
0.15252 0.04723 0.34908
0.15252 0.04723 0.34908
0.15212 0.02631 0.34807
0.15212 0.02631 0.34807
0.15254 0.04486 0.34894
0.15151 -0.00076 0.34651
0.15151 -0.00076 0.34651
0.15268 0.04619 0.34901
0.15270 0.04674 0.34905
0.15267 0.04541 0.34891
0.15226 0.02240 0.34795
0.15290 0.04938 0.34932
0.15193 0.00597 0.34710
0.15182 0.00267 0.34678
0.15169 -0.00484 0.34619
0.13971 0.04020 0.31882
0.15155 -0.01269 0.34568
0.15309 0.04695 0.34913
0.15309 0.04695 0.34913
0.15305 0.04584 0.34892
0.15182 -0.00767 0.34609
0.14649 0.05611 0.33394
0.15235 0.01504 0.34715
0.15154 -0.01834 0.34529
0.15154 -0.01834 0.34529
0.14408 0.04118 0.32827
0.15216 0.00107 0.34662
0.15318 0.04544 0.34891
0.15279 0.02187 0.34784
0.15232 0.00045 0.34660
0.15268 0.01015 0.34738
0.15295 0.02265 0.34800
0.15244 0.00331 0.34678
0.15340 0.04619 0.34892
0.15336 0.04657 0.34883
0.15248 0.00101 0.34670
0.15267 0.00667 0.34701
0.15365 0.05088 0.34918
0.15270 0.00731 0.34701
0.15239 -0.00820 0.34618
0.15374 0.05144 0.34923
0.15327 0.02792 0.34814
0.15369 0.05045 0.34904
0.15312 0.02039 0.34766
0.15379 0.04743 0.34909
0.15291 0.00682 0.34707
0.15370 0.04253 0.34880
0.17922 0.07248 0.40638
0.15417 0.05022 0.34931
0.15323 0.00741 0.34706
0.15366 0.02648 0.34802
0.15359 0.02060 0.34771
0.15909 0.04510 0.36006
0.15353 0.01379 0.34739
0.15327 0.00295 0.34681
0.15350 0.01422 0.34730
0.15369 0.01871 0.34758
0.15756 -0.03236 0.35618
0.15439 0.04555 0.34901
0.15450 0.05098 0.34919
0.15414 0.02740 0.34814
0.15414 0.02740 0.34814
0.15376 0.01806 0.34726
0.15460 0.04295 0.34884
0.15469 0.04751 0.34896
0.15400 0.01410 0.34740
0.15296 -0.02141 0.34503
0.15299 -0.02034 0.34506
0.15412 0.01616 0.34758
0.15372 -0.00054 0.34663
0.15487 0.04808 0.34905
0.15324 -0.01704 0.34533
0.15352 -0.00755 0.34581
0.15339 -0.01831 0.34535
0.15502 0.05097 0.34898
0.15502 0.05097 0.34898
0.15334 -0.02091 0.34515
0.15397 -0.00407 0.34658
0.15444 0.01922 0.34761
0.12975 0.01615 0.29204
0.15451 0.01831 0.34768
0.15504 0.04403 0.34883
0.15474 0.02800 0.34812
0.15516 0.04770 0.34897
0.15383 -0.01050 0.34593
0.15432 0.00628 0.34702
0.15441 0.01302 0.34719
0.15467 0.02036 0.34777
0.15384 -0.01124 0.34583
0.15384 -0.01124 0.34583
0.15423 -0.00073 0.34650
0.15423 -0.00073 0.34650
0.15453 0.00695 0.34703
0.15362 -0.02175 0.34494
0.16009 0.02284 0.35944
0.15507 0.02641 0.34800
0.15554 0.04795 0.34899
0.15564 0.05174 0.34907
0.15560 0.04738 0.34895
0.15560 0.04738 0.34895
0.15566 0.05121 0.34905
0.15566 0.05121 0.34905
0.15425 -0.00457 0.34586
0.15404 -0.01662 0.34533
0.15562 0.04658 0.34877
0.15400 -0.02056 0.34507
0.15400 -0.02056 0.34507
0.15500 0.01199 0.34729
0.15530 0.02229 0.34779
0.15421 -0.01773 0.34526
0.15530 0.01952 0.34764
0.15451 -0.00725 0.34573
0.15451 -0.00725 0.34573
0.15443 -0.01457 0.34550
0.15594 0.04700 0.34886
0.15598 0.04780 0.34893
0.15432 -0.01925 0.34515
0.15602 0.04358 0.34884
0.15600 0.04618 0.34878
0.15603 0.04505 0.34878
0.15603 0.04505 0.34878
0.15574 0.02595 0.34793
0.15574 0.02595 0.34793
0.15529 0.01070 0.34690
0.15628 0.05106 0.34910
0.15515 -0.00036 0.34655
0.15454 -0.02014 0.34516
0.15632 0.04734 0.34890
0.15475 -0.01916 0.34537
0.15527 -0.04955 0.34652
0.15644 0.04804 0.34899
0.15645 0.04641 0.34879
0.15522 -0.00946 0.34591
0.15566 0.00553 0.34682
0.15666 0.05212 0.34904
0.15687 0.06268 0.34939
0.15628 0.02802 0.34801
0.15673 0.05077 0.34899
0.15673 0.05077 0.34899
0.15689 0.05992 0.34934
0.15613 0.02031 0.34756
0.15677 0.04761 0.34891
0.15678 0.04423 0.34875
0.15678 0.04423 0.34875
0.15631 0.01960 0.34762
0.15631 0.01960 0.34762
0.15579 -0.00088 0.34646
0.15579 -0.00088 0.34646
0.15548 -0.00818 0.34569
0.15723 0.05547 0.34957
0.15575 -0.00300 0.34624
0.15652 0.02630 0.34792
0.15652 0.02630 0.34792
0.15529 -0.01917 0.34518
0.15529 -0.01917 0.34518
0.15528 -0.02018 0.34508
0.15528 -0.02018 0.34504
0.15645 0.01900 0.34756
0.15561 -0.01025 0.34556
0.15696 0.04261 0.34855
0.15659 0.02131 0.34772
0.15659 0.02131 0.34772
0.15713 0.04794 0.34889
0.15713 0.04794 0.34889
0.15656 0.01849 0.34752
0.15558 -0.01805 0.34523
0.15616 -0.00179 0.34647
0.15616 -0.00179 0.34647
0.15562 -0.01861 0.34524
0.15726 0.04730 0.34887
0.15622 -0.00032 0.34652
0.15628 -0.00233 0.34636
0.15563 -0.02169 0.34490
0.15670 0.01121 0.34722
0.15568 -0.02114 0.34489
0.15710 0.02718 0.34800
0.15710 0.02718 0.34800
0.14396 0.04001 0.31885
0.15704 0.01300 0.34780
0.13990 0.03867 0.30980
0.15697 0.01972 0.34752
0.15594 -0.02025 0.34521
0.15762 0.04773 0.34889
0.15725 0.02189 0.34773
0.15633 -0.02079 0.34537
0.15630 -0.01856 0.34520
0.15622 -0.02149 0.34496
0.15622 -0.02149 0.34496
0.15620 -0.02195 0.34491
0.15620 -0.02195 0.34491
0.15795 0.04517 0.34868
0.15754 0.00918 0.34736
0.15785 0.02767 0.34800
0.15785 0.02767 0.34800
0.15698 -0.00877 0.34604
0.15675 -0.02187 0.34508
0.15848 0.04369 0.34866
0.15868 0.05398 0.34905
0.15776 0.00439 0.34674
0.15768 -0.00669 0.34640
0.15807 0.01209 0.34714
0.15711 -0.01908 0.34501
0.15405 0.03970 0.33804
0.15698 -0.03134 0.34445
0.15698 -0.03134 0.34445
0.15852 0.02653 0.34777
0.15867 0.02872 0.34806
0.15892 0.04292 0.34856
0.15812 0.00511 0.34671
0.15901 0.04429 0.34860
0.15778 -0.00837 0.34581
0.15827 0.00385 0.34670
0.15827 0.00385 0.34670
0.15873 0.02202 0.34763
0.15873 0.02202 0.34763
0.15861 0.01254 0.34709
0.15826 -0.00261 0.34613
0.15826 -0.00261 0.34613
0.15941 0.04402 0.34863
0.15809 -0.01107 0.34573
0.15914 0.02623 0.34780
0.15905 0.02028 0.34751
0.15905 0.02028 0.34751
0.15765 -0.03150 0.34443
0.15919 0.02256 0.34753
0.15932 0.02718 0.34779
0.16780 0.06470 0.36601
0.12895 -0.00816 0.28102
0.15985 0.02222 0.34758
0.16008 0.02771 0.34788
0.15990 0.01191 0.34742
0.16020 0.02652 0.34771
0.16025 -0.00063 0.34773
0.15961 -0.00457 0.34629
0.15996 0.00865 0.34670
0.16033 0.02183 0.34744
0.16029 0.02005 0.34735
0.16004 0.00807 0.34681
0.15968 -0.00661 0.34599
0.16014 0.00560 0.34676
0.16025 0.00434 0.34667
0.16025 0.00434 0.34667
0.15987 -0.00506 0.34583
0.16031 -0.00185 0.34628
0.16093 0.02754 0.34760
0.16050 -0.00508 0.34595
0.14286 0.02270 0.30774
0.16139 0.02626 0.34765
0.16088 -0.00824 0.34574
0.16088 -0.00824 0.34574
0.16128 0.00122 0.34652
0.16125 0.00075 0.34641
0.16158 0.00993 0.34681
0.16158 0.00993 0.34681
0.16205 0.01454 0.34698
0.16194 0.00537 0.34654
0.16194 0.00537 0.34654
0.16291 0.05752 0.34860
0.12651 0.00097 0.27038
0.12651 0.00097 0.27038
0.16232 0.00734 0.34665
0.16232 0.00734 0.34665
0.16342 0.05690 0.34851
0.16363 0.05527 0.34868
0.16246 -0.00482 0.34597
0.16246 -0.00482 0.34597
0.16302 0.00867 0.34673
0.16308 0.00439 0.34646
0.16305 0.00118 0.34625
0.16336 0.00840 0.34690
0.16314 -0.00179 0.34611
0.16332 -0.00477 0.34588
0.16332 -0.00477 0.34588
0.16371 0.00189 0.34633
0.16384 0.00125 0.34629
0.16384 0.00125 0.34629
0.16375 0.00044 0.34607
0.16394 0.00132 0.34602
0.16394 0.00132 0.34602
0.16416 0.00404 0.34636
0.16438 -0.00042 0.34613
0.16433 -0.00259 0.34596
0.16433 -0.00259 0.34596
0.12492 0.00093 0.26260
0.12472 0.00394 0.26189
0.12472 0.00394 0.26189
0.16499 0.00521 0.34640
0.12472 0.00394 0.26185
0.16531 0.00335 0.34620
0.16533 -0.00089 0.34598
0.16533 -0.00089 0.34598
0.16533 -0.00089 0.34598
0.16544 0.00122 0.34594
0.16544 0.00122 0.34594
0.18079 -0.03144 0.34257
