0.222458 0.182498 0.528682 161 137 109
0.188021 0.270070 0.503940 130 99 78
0.178071 0.273776 0.435425 71 42 24
0.202615 0.242664 0.424880 63 32 3
0.222594 0.180569 0.529275 87 64 33
0.187169 0.272884 0.497968 127 95 74
0.220228 0.224504 0.511130 150 119 91
0.222584 0.197935 0.525704 154 128 101
0.115795 -0.132745 0.587965 192 187 184
0.185606 0.221141 0.352466 162 131 102
0.185639 0.221148 0.352531 162 131 102
0.219937 0.224806 0.509283 155 124 95
0.215586 0.240422 0.485067 62 30 7
0.166047 0.252649 0.373569 98 75 59
0.206103 0.244609 0.437918 86 56 28
0.163379 0.247026 0.359737 43 20 4
0.221924 0.211917 0.518934 96 69 40
0.222045 0.206827 0.520756 162 137 107
0.209556 0.245638 0.453277 49 21 0
0.199866 0.239013 0.409637 154 125 93
0.208172 0.244591 0.446275 69 39 11
0.208172 0.244591 0.446275 69 39 11
0.220758 0.223886 0.509829 38 8 0
0.183859 0.278760 0.482106 114 86 72
0.203671 0.241815 0.425139 154 123 92
0.217853 0.237304 0.492388 134 102 77
0.220231 0.226916 0.505797 133 100 69
0.202113 0.240477 0.417686 163 132 103
0.213236 0.244540 0.467127 175 147 125
0.222736 0.208996 0.519103 59 32 3
-0.049287 -0.060609 0.654476 106 88 86
0.224445 0.184123 0.529018 40 16 0
0.175243 0.273057 0.428314 34 8 0
0.195361 0.232278 0.387558 47 16 0
0.198285 0.235769 0.399553 70 37 6
0.207926 0.243248 0.439943 37 6 0
0.207926 0.243248 0.439943 37 6 0
0.224789 0.188703 0.527297 144 122 98
0.207752 0.242945 0.439231 33 2 0
0.167674 0.259797 0.388557 33 7 0
0.182754 0.279576 0.479573 52 25 6
0.164697 0.253890 0.372804 38 16 3
0.179387 0.279304 0.457561 117 90 71
0.216606 0.240845 0.477290 111 80 59
0.223154 0.202778 0.517578 160 133 106
0.225618 0.184047 0.527321 40 16 0
0.225618 0.184047 0.527321 40 16 0
0.207925 0.242086 0.435594 142 113 83
0.215563 0.241337 0.471339 45 14 0
0.182048 0.280248 0.476408 106 77 61
0.204771 0.239133 0.422209 145 116 84
0.204771 0.239133 0.422209 145 116 84
0.224897 0.208630 0.518502 59 32 3
0.225152 0.202019 0.520573 24 0 0
0.225152 0.202019 0.520573 24 0 0
0.186282 0.265160 0.513802 131 100 79
0.226661 0.172595 0.529831 86 63 32
0.184066 0.277926 0.494051 113 82 62
0.217251 0.239910 0.475452 44 16 0
0.225974 0.198518 0.522195 34 6 0
0.219927 0.235031 0.488874 151 120 99
0.219772 0.237217 0.486243 45 17 0
0.219661 0.237006 0.485743 45 17 0
0.219661 0.237006 0.485743 45 17 0
0.223715 0.220724 0.507911 140 111 79
0.226950 0.180263 0.527778 77 53 25
0.212445 0.241965 0.450633 58 28 2
0.184015 0.275101 0.501834 55 23 0
0.208752 0.240202 0.434216 165 135 107
0.205665 0.237944 0.420964 43 13 0
0.227002 0.194269 0.523864 35 11 0
0.227342 0.176830 0.527896 156 132 104
0.197942 0.229637 0.387994 67 38 8
0.225012 0.215107 0.511674 126 100 67
0.225663 0.212242 0.514173 152 125 95
0.182586 0.278655 0.493829 47 16 0
0.161927 0.252578 0.367299 34 11 0
0.173623 0.276761 0.432597 137 112 90
0.226769 0.201641 0.519526 102 75 46
0.207335 0.237842 0.424690 160 133 104
0.221501 0.232687 0.490097 122 92 64
0.221501 0.232687 0.490097 122 92 64
0.220607 0.235753 0.484290 163 138 116
0.182981 0.276344 0.502750 143 111 86
0.220607 0.235753 0.484290 163 138 116
0.227051 0.199375 0.520229 108 80 56
0.222162 0.230691 0.492699 127 98 68
0.226634 0.203252 0.517429 120 93 66
0.224779 0.220000 0.506064 33 6 0
0.181626 0.280500 0.495525 123 92 74
0.163048 0.258679 0.378503 125 101 89
0.178078 0.283527 0.469166 141 110 90
0.180844 0.280477 0.492563 46 17 0
0.180844 0.280477 0.492563 46 17 0
0.226432 0.208294 0.514840 49 22 0
0.426756 0.497349 0.605781 147 125 127
0.223457 0.226690 0.497843 130 97 66
0.224670 0.222230 0.503779 44 17 0
0.165210 0.264523 0.392575 33 7 0
0.228047 0.192179 0.522763 146 122 96
0.168894 0.272310 0.413752 107 80 61
0.222018 0.234205 0.486575 41 15 0
0.228891 0.182543 0.525716 150 129 102
0.180116 0.281944 0.493068 131 102 84
0.221358 0.234704 0.482261 44 20 0
0.229683 0.168162 0.529095 91 71 44
0.225688 0.220127 0.504183 121 92 62
0.228151 0.200415 0.518113 57 29 5
0.226607 0.218165 0.507206 130 101 71
0.169788 0.276741 0.424459 38 13 0
0.226635 0.212407 0.509274 143 116 86
0.229411 0.191531 0.521893 59 37 13
0.228776 0.195011 0.519203 90 69 42
0.230302 0.178148 0.525928 167 145 122
0.230302 0.178148 0.525928 167 145 122
0.230388 0.176755 0.526128 162 140 116
0.227653 0.211062 0.509657 86 59 29
0.174232 0.284700 0.464154 63 34 16
0.229084 0.206570 0.513402 170 146 118
0.231182 0.175452 0.525655 76 55 28
0.169120 0.279695 0.429849 131 105 88
0.228507 0.213929 0.507733 99 75 41
0.166403 0.274866 0.414552 106 81 61
0.175333 0.286935 0.475271 32 3 0
0.232538 0.170947 0.526437 135 117 95
0.169881 0.283413 0.439338 31 6 0
0.175056 0.288597 0.475595 135 106 88
0.165345 0.275167 0.412469 39 13 0
0.006511 0.080210 0.593880 182 178 175
0.173785 0.288605 0.471508 122 93 79
0.006260 0.055355 0.592258 180 175 172
0.005678 0.380713 0.542180 180 176 173
0.170996 0.290723 0.467945 166 140 117
-0.005613 0.066990 0.595358 176 173 168
0.144658 0.005099 0.590238 194 186 184
0.347063 0.329321 0.560828 166 157 148
-0.017833 0.030409 0.600820 147 140 134
-0.017830 0.055231 0.599795 153 146 140
0.184483 0.277719 0.474711 31 3 0
0.189713 0.260499 0.515785 46 15 0
0.185704 0.277362 0.481245 27 4 0
0.188868 0.267535 0.506473 87 56 38
0.190233 0.262289 0.515298 131 99 78
0.186559 0.274935 0.488135 121 92 74
0.188637 0.270281 0.500377 32 1 0
0.188637 0.270281 0.500377 32 1 0
0.188162 0.273588 0.490803 132 104 83
0.190386 0.264951 0.508527 48 17 0
0.190264 0.267519 0.504676 187 156 138
0.190264 0.267519 0.504676 187 156 138
0.190265 0.270125 0.500884 46 15 0
0.189675 0.270285 0.498304 132 101 83
0.188505 0.273837 0.485001 102 73 57
0.189487 0.271619 0.492250 37 9 0
0.188917 0.273131 0.487064 25 0 0
0.184800 0.274079 0.458706 51 24 7
0.186938 0.274825 0.469996 48 25 11
0.191291 0.267088 0.499829 39 12 0
0.184197 0.272746 0.449949 137 110 91
0.187540 0.273570 0.472218 49 26 10
0.189324 0.273463 0.481572 71 42 24
0.182764 0.269421 0.436895 35 8 0
0.182764 0.269421 0.436895 35 8 0
0.184989 0.271492 0.448189 39 13 0
0.192584 0.265602 0.499390 152 124 103
0.189905 0.271816 0.477935 164 135 117
0.174365 0.254820 0.390221 122 95 76
0.190460 0.270895 0.481001 121 92 74
0.193704 0.264687 0.501173 27 0 0
0.181145 0.265116 0.424032 32 5 0
0.109510 -0.300982 0.622669 49 33 33
0.182891 0.267044 0.431009 127 100 79
0.182891 0.267044 0.431009 127 100 79
0.197157 0.234188 0.527142 176 152 128
0.193944 0.265186 0.498818 66 38 17
0.185662 0.269509 0.445066 40 15 0
0.185662 0.269509 0.445066 40 15 0
0.186124 0.268689 0.445695 112 90 69
0.191861 0.270832 0.476675 117 90 71
0.173689 0.249269 0.379409 133 106 85
0.194613 0.265315 0.494742 69 43 20
0.189114 0.270397 0.458301 123 101 78
0.187811 0.269067 0.449711 134 109 87
0.194966 0.264170 0.494636 173 147 124
0.197189 0.255434 0.508024 123 95 71
0.196841 0.262276 0.500675 153 125 103
0.198781 0.247089 0.516352 134 108 85
0.198781 0.247089 0.516352 134 108 85
0.178780 0.254212 0.396785 82 56 33
0.196402 0.262152 0.496955 77 51 28
0.195992 0.262991 0.492798 43 17 0
0.194280 0.266906 0.480042 133 106 87
0.191158 0.268553 0.458336 116 89 68
0.191158 0.268553 0.458336 116 89 68
0.195466 0.264681 0.488362 26 0 0
0.197393 0.260315 0.500381 41 14 0
0.197393 0.260315 0.500381 41 14 0
0.171963 0.240643 0.362243 132 104 83
0.199761 0.249892 0.514142 55 28 7
0.198376 0.257804 0.500693 148 121 102
0.196830 0.264542 0.487575 41 13 0
0.196830 0.264542 0.487575 41 13 0
0.203538 0.227996 0.531564 47 25 4
0.200772 0.242204 0.517850 48 21 0
0.203218 0.230002 0.529565 156 130 107
0.198037 0.260817 0.495977 166 141 119
0.201111 0.245102 0.516965 74 48 25
0.198955 0.255929 0.502847 44 18 3
0.201011 0.245786 0.515112 131 104 85
0.199853 0.253169 0.506256 37 11 0
0.196679 0.263932 0.484096 143 115 94
0.201353 0.243309 0.516573 140 114 91
0.201353 0.243309 0.516573 140 114 91
0.201053 0.247784 0.513214 132 107 85
0.201745 0.241169 0.518791 150 122 101
0.202550 0.232757 0.524332 60 33 6
0.194911 0.266007 0.470789 123 96 75
0.194911 0.266007 0.470789 123 96 75
0.202172 0.236009 0.521713 136 108 86
0.197443 0.263162 0.486247 123 96 75
0.178789 0.247824 0.385265 149 121 99
0.197921 0.261266 0.487430 149 125 101
0.202208 0.244039 0.514932 33 6 0
0.194952 0.265354 0.466095 70 45 25
0.204660 0.225216 0.529198 28 2 0
0.199790 0.257927 0.496630 117 90 69
0.197106 0.263530 0.478192 49 22 5
0.197106 0.263530 0.478192 49 22 5
0.204174 0.228601 0.525903 53 26 0
0.201882 0.249206 0.508010 151 124 103
0.202280 0.248550 0.509702 145 118 97
0.201447 0.256588 0.500601 36 11 0
0.202155 0.250407 0.506766 73 47 22
0.180593 0.247388 0.387285 35 8 0
0.204389 0.232145 0.521998 185 158 131
0.198944 0.261719 0.482982 108 82 59
0.204192 0.235981 0.519107 131 105 82
0.202878 0.248890 0.508295 71 45 22
0.202024 0.254150 0.501878 163 138 116
0.205245 0.224896 0.526074 165 138 109
0.188263 0.257439 0.422948 125 98 77
0.199461 0.260284 0.484505 144 118 95
0.199461 0.260284 0.484505 144 118 95
0.198625 0.261759 0.478336 134 106 85
0.203054 0.249600 0.506666 146 120 97
0.200948 0.257095 0.492563 35 8 0
0.200869 0.256822 0.492074 41 15 0
0.204535 0.241743 0.513830 56 29 10
0.202444 0.254974 0.497715 170 148 125
0.189069 0.256562 0.422423 38 11 0
0.203944 0.248091 0.507762 118 91 72
0.197296 0.262170 0.465848 110 82 61
0.187745 0.254946 0.414127 31 4 0
0.203535 0.246195 0.506944 57 30 9
0.203175 0.253230 0.500539 52 26 1
0.204632 0.244567 0.510962 21 0 0
0.200122 0.259458 0.482094 71 45 22
0.205394 0.237575 0.516739 22 0 0
0.206965 0.220890 0.526719 143 118 88
0.200267 0.259975 0.479543 123 95 71
0.205539 0.239740 0.513757 89 63 38
0.205539 0.239740 0.513757 89 63 38
0.199612 0.259685 0.473558 138 107 87
0.176374 0.234001 0.357988 152 124 103
0.207176 0.230130 0.521100 134 107 80
0.204085 0.253472 0.498023 84 59 37
0.195278 0.260130 0.447648 142 115 94
0.195278 0.260130 0.447648 142 115 94
0.205498 0.245212 0.508192 131 104 85
0.207803 0.223588 0.524359 136 109 80
0.205109 0.248838 0.503903 105 78 57
0.205109 0.248838 0.503903 105 78 57
0.206017 0.242020 0.510795 77 51 28
0.206724 0.241092 0.513144 162 136 113
0.207604 0.229771 0.520647 130 103 76
0.197794 0.260352 0.459155 102 73 55
0.206155 0.243322 0.509629 127 98 80
0.178993 0.237257 0.367331 24 0 0
0.199427 0.259624 0.467059 105 74 54
0.206274 0.245320 0.507344 98 71 52
0.202315 0.257249 0.482667 121 95 72
0.203253 0.253266 0.490152 194 172 151
0.201765 0.257729 0.479134 131 103 81
0.205008 0.251884 0.497463 143 118 96
0.205008 0.251884 0.497463 143 118 96
0.207834 0.233982 0.516694 167 141 118
0.206727 0.244559 0.506383 153 126 107
0.201228 0.258348 0.471986 61 33 12
0.203961 0.255066 0.487745 73 48 26
0.207321 0.240835 0.509806 175 148 127
0.204820 0.252790 0.493004 47 22 2
0.209538 0.224281 0.523263 22 0 0
0.202722 0.257676 0.478335 131 103 81
0.208098 0.242644 0.509686 77 50 29
0.210206 0.214444 0.526877 163 137 110
0.209086 0.232426 0.517352 21 0 0
0.211386 0.196778 0.533272 158 132 95
0.209366 0.229338 0.519019 39 13 0
0.205713 0.252393 0.493410 88 66 45
0.199121 0.257356 0.456786 115 84 66
0.208645 0.237553 0.512180 115 88 71
0.207903 0.244340 0.505751 29 2 0
0.183281 0.239691 0.378551 132 104 82
0.201561 0.257103 0.467936 129 101 80
0.211180 0.213148 0.526900 24 0 0
0.210333 0.230819 0.518499 129 103 80
0.190981 0.250160 0.412413 129 103 78
0.203924 0.254044 0.481124 139 111 89
0.208478 0.242467 0.506574 143 116 97
0.194166 0.253324 0.427619 54 26 5
0.208475 0.247059 0.501254 57 30 9
0.202536 0.256065 0.467801 42 11 0
0.210932 0.230937 0.517062 68 42 19
0.198625 0.261759 0.478336 134 106 85
0.212119 0.214466 0.525477 131 105 78
0.214120 0.184103 0.536529 155 135 108
0.209180 0.244454 0.503648 131 106 86
0.249391 -0.195310 0.613758 205 207 206
0.209964 0.239830 0.507883 154 129 109
0.209964 0.239830 0.507883 154 129 109
0.201061 0.255718 0.457345 127 99 78
0.201061 0.255718 0.457345 127 99 78
0.201905 0.255756 0.460328 58 30 9
0.212357 0.219852 0.522219 178 152 125
0.210120 0.241480 0.505756 40 13 0
0.210652 0.235894 0.510093 72 45 26
0.213200 0.208247 0.526908 134 108 83
0.205193 0.254005 0.476094 40 13 0
0.202957 0.255372 0.463353 127 98 80
0.213297 0.211206 0.525702 160 134 107
0.205433 0.254845 0.473616 174 147 128
0.200939 0.254167 0.452593 45 17 0
0.209461 0.246934 0.496331 143 117 100
0.211881 0.227813 0.514725 187 163 139
0.213663 0.218016 0.522934 21 0 0
0.212550 0.231362 0.514306 88 60 36
0.215031 0.188586 0.532441 151 128 97
0.210829 0.244792 0.500925 127 101 84
0.213848 0.222279 0.521231 151 125 100
0.214374 0.209371 0.526080 31 5 0
0.214374 0.209371 0.526080 31 5 0
0.213110 0.226490 0.517004 33 9 0
0.211539 0.237649 0.507103 41 14 0
0.203547 0.253834 0.461590 28 0 0
0.212429 0.233510 0.511771 20 0 0
0.208380 0.251345 0.485112 148 125 107
0.208380 0.251345 0.485112 148 125 107
0.214586 0.205008 0.526601 171 147 121
0.212030 0.238993 0.506012 123 96 77
0.208265 0.248843 0.485033 158 135 117
0.190463 0.242140 0.396046 35 7 0
0.214444 0.219670 0.520997 130 103 76
0.212577 0.235679 0.508905 38 11 0
0.203609 0.253409 0.457946 126 101 79
0.211315 0.239446 0.501499 163 136 119
0.211315 0.239446 0.501499 163 136 119
0.205230 0.252416 0.466519 143 120 102
0.216509 0.183931 0.532151 46 23 0
0.222959 -0.265133 0.475125 191 191 189
0.213511 0.234517 0.509083 115 86 68
0.216591 0.196689 0.529658 138 113 83
0.215080 0.222965 0.518154 163 137 112
0.217160 0.194485 0.531194 144 119 89
0.216222 0.203312 0.526891 23 0 0
0.204984 0.252342 0.460412 140 113 94
0.208949 0.249896 0.480406 143 120 104
0.216552 0.208658 0.525967 152 126 101
0.193008 0.243179 0.402723 112 84 62
0.187958 0.236053 0.381152 106 77 59
0.199144 0.249470 0.431046 25 0 0
0.216797 0.200811 0.527928 24 0 0
0.216959 0.205626 0.526989 128 104 78
0.214260 0.232804 0.509730 122 94 72
0.215379 0.225051 0.516416 111 85 60
0.213181 0.238461 0.503156 23 0 0
0.213861 0.234942 0.507261 129 101 80
0.208779 0.250199 0.477337 76 50 33
0.202067 0.250788 0.442797 33 5 0
0.205781 0.251259 0.460242 57 32 12
0.209990 0.248186 0.481689 45 22 8
0.205042 0.250998 0.455851 39 11 0
0.205042 0.250998 0.455851 39 11 0
0.218026 0.185653 0.531251 35 9 0
0.201703 0.249605 0.438208 121 90 69
0.216000 0.224204 0.515096 62 35 8
0.214793 0.229385 0.508604 83 55 31
0.215423 0.234122 0.507884 130 102 80
0.217586 0.212867 0.522536 32 2 0
0.217449 0.211173 0.522396 125 98 69
0.216826 0.221192 0.517125 27 0 0
0.216826 0.221192 0.517125 27 0 0
0.216420 0.225408 0.514319 57 29 7
0.212312 0.245487 0.488987 39 13 0
0.214119 0.238231 0.500167 147 116 95
0.207282 0.249965 0.462762 39 12 0
0.216329 0.227582 0.512262 22 0 0
0.218571 0.182607 0.530275 137 112 82
0.218942 0.194212 0.528799 164 140 114
0.213924 0.239745 0.497553 43 16 0
0.210982 0.247754 0.480093 113 87 70
0.217065 0.223048 0.515471 139 109 83
0.195341 0.241308 0.404434 56 26 0
0.218856 0.203272 0.525442 70 44 19
0.213851 0.242543 0.493475 48 20 0
0.212421 0.244678 0.485884 53 26 5
0.194080 0.239314 0.397810 144 114 90
0.213676 0.244023 0.490163 180 152 130
0.200981 0.245905 0.427037 154 122 97
0.218114 0.223342 0.514787 78 51 24
0.198810 0.243823 0.417045 63 31 6
0.209808 0.246662 0.471268 74 47 28
0.218507 0.214852 0.518973 67 40 11
0.218344 0.221539 0.515549 127 100 73
0.213056 0.244578 0.484474 148 118 94
0.209643 0.248136 0.466469 33 8 0
0.209883 0.247279 0.468881 116 89 68
0.218661 0.219164 0.516376 84 57 30
0.220462 0.179255 0.530415 135 111 85
0.216418 0.235314 0.502090 168 136 111
0.216418 0.235314 0.502090 168 136 111
0.203197 0.246856 0.434899 53 23 0
0.219799 0.207209 0.523135 180 154 129
0.215444 0.238721 0.495830 166 134 109
0.212017 0.246331 0.476526 58 30 9
0.218473 0.225134 0.511977 192 165 136
0.215873 0.236486 0.497903 176 141 119
0.194338 0.237001 0.394124 50 19 0
0.219156 0.220508 0.515347 64 34 6
0.203130 0.245805 0.432027 54 20 0
0.219609 0.218312 0.516303 187 160 130
0.219609 0.218312 0.516303 187 160 130
0.221977 0.192075 0.529154 83 57 30
0.217688 0.232621 0.503364 48 14 0
0.219875 0.214954 0.517382 155 126 96
0.210162 0.247213 0.463159 131 100 79
0.220043 0.216584 0.517118 25 0 0
0.216109 0.239757 0.492524 43 13 0
0.216109 0.239757 0.492524 43 13 0
0.222059 0.190188 0.528592 71 47 21
0.221134 0.210494 0.521004 175 149 124
0.220779 0.203533 0.521706 159 133 108
0.220779 0.203533 0.521706 159 133 108
0.218748 0.230580 0.505232 137 102 74
0.213048 0.245339 0.474117 42 11 0
0.222515 0.187484 0.528801 70 46 20
0.221523 0.195425 0.524300 158 132 105
0.219517 0.226796 0.508207 46 11 0
0.177384 0.270921 0.427268 116 91 71
0.192674 0.268285 0.484576 37 8 0
0.197282 0.249183 0.516992 78 48 24
0.226823 0.220911 0.502240 156 127 93
0.204794 0.254963 0.478958 129 103 80
0.200264 0.259191 0.467148 54 21 4
0.207075 0.237483 0.514798 115 87 65
0.207397 0.235712 0.516916 87 59 35
0.224197 0.195799 0.526656 144 118 93
0.204456 0.246663 0.506100 119 93 70
0.200844 0.259110 0.481903 113 87 64
0.211923 0.240460 0.499591 64 37 18
0.212033 0.223811 0.520069 73 45 21
0.215722 0.189772 0.531126 135 111 77
0.186720 0.218912 0.351468 109 78 50
0.200650 0.258720 0.492176 141 115 92
0.176867 0.242530 0.373280 80 52 30
0.225641 0.221984 0.502309 61 32 0
0.228956 0.163416 0.530577 143 126 98
0.203885 0.234382 0.409053 146 119 89
0.208196 0.238902 0.429180 94 64 38
